6.052 5.434 4.826 4.232 3.659 3.115 1.608 1.148 0.755 0.455 0.341 0.287 0.232 0.179 0.132 0.094 0.076 0.065 0.054 0.044 0.036 0.034 0.034 0.034 0.034 0.034 0.034 0.034 0.034 0.034 0.034 0.034 0.034 0.034 0.034 0.034 0.034 0.034 0.034 0.034 0.034 0.034 0.034 0.034 0.034 0.034 0.034 0.034 0.034 0.034 0.034 0.034 0.034 0.034 0.034 0.034 0.034 0.034 0.034 0.034 0.034 0.034 0.034 0.034 0.034 0.034 0.034 0.034 0.034 0.034 0.034 0.034 0.034 0.034 0.034 0.034 0.034 0.034 0.034 0.034 0.039 0.059 0.084 0.114 0.146 0.179 0.214 0.249 0.284 0.322 0.360 0.398 1.437 1.475 1.511 1.542 1.568 1.589 1.604 1.617 1.624 1.627 1.626 1.619 1.613 1.612 1.613 1.616 1.614 1.614 1.614 0.615 0.618 0.622 1.628 1.635 1.640 1.648 1.655 1.656 1.654 1.648 1.643 1.630 1.607 1.575 1.535 1.492 1.447 0.401 0.355 0.309 0.264 0.223 0.183 0.147 0.117 0.105 0.106 0.122 0.156 0.197 0.242 0.292 0.342 0.397 0.453 0.511 1.567 1.622 1.674 1.724 1.770 1.814 1.855 1.893 1.926 1.956 1.980 1.996 2.000 2.000 2.000 2.000 2.000 2.000 2.000 2.000 2.000 2.060 2.307 2.649 3.058 3.516 4.012 4.536 5.083 5.644 6.214
6.060 5.445 4.837 4.243 3.671 3.126 1.617 1.157 0.762 0.461 0.346 0.292 0.239 0.187 0.138 0.097 0.077 0.063 0.049 0.035 0.021 0.011 0.007 0.007 0.007 0.007 0.007 0.007 0.007 0.007 0.007 0.007 0.007 0.007 0.007 0.007 0.007 0.007 0.007 0.007 0.007 0.007 0.007 0.007 0.007 0.007 0.007 0.007 0.007 0.007 0.007 0.007 0.007 0.007 0.007 0.007 0.007 0.007 0.007 0.007 0.007 0.007 0.007 0.007 0.007 0.007 0.007 0.007 0.007 0.007 0.007 0.007 0.007 0.007 0.007 0.007 0.007 0.007 0.007 0.007 0.007 0.020 0.042 0.070 0.101 0.134 0.169 0.204 0.240 0.278 0.316 0.354 0.391 1.427 1.459 1.487 1.511 1.530 1.543 1.555 1.561 1.564 1.562 1.557 1.552 1.553 1.558 0.565 0.569 0.571 0.575 0.580 0.584 0.591 1.599 1.608 1.617 1.628 1.638 1.644 1.646 1.647 1.647 1.646 1.630 1.591 1.548 1.499 1.450 0.401 0.352 0.303 0.258 0.213 0.171 0.133 0.109 0.099 0.100 0.116 0.148 0.191 0.237 0.288 0.340 0.395 0.451 1.509 1.568 1.625 1.681 1.734 1.783 1.828 1.872 1.910 1.943 1.971 1.990 1.999 2.000 2.000 2.000 2.000 2.000 2.000 2.000 2.000 2.000 2.060 2.307 2.649 3.058 3.516 4.012 4.536 5.083 5.644 6.214
6.070 5.458 4.854 4.263 3.692 3.147 1.640 1.180 0.786 0.486 0.373 0.320 0.268 0.217 0.169 0.126 0.103 0.085 0.068 0.051 0.034 0.018 0.006 0.000 0.000 0.000 0.000 0.000 0.000 0.000 0.000 0.000 0.000 0.000 0.000 0.000 0.000 0.000 0.000 0.000 0.000 0.000 0.000 0.000 0.000 0.000 0.000 0.000 0.000 0.000 0.000 0.000 0.000 0.000 0.000 0.000 0.000 0.000 0.000 0.000 0.000 0.000 0.000 0.000 0.000 0.000 0.000 0.000 0.000 0.000 0.000 0.000 0.000 0.000 0.000 0.000 0.000 0.000 0.000 0.000 0.000 0.004 0.022 0.046 0.073 0.104 0.136 0.170 0.204 0.241 0.277 0.312 0.346 0.378 0.407 1.432 1.455 1.471 1.484 1.493 1.499 1.502 1.499 1.494 1.491 1.494 0.501 0.510 0.519 0.525 0.533 0.542 0.552 0.562 1.575 1.588 1.602 1.619 1.636 1.648 1.655 1.662 1.665 1.672 1.663 1.623 1.573 1.520 1.468 1.416 0.365 0.315 0.268 0.221 0.179 0.141 0.120 0.112 0.114 0.130 0.160 0.204 0.253 0.304 0.358 0.414 1.470 1.528 1.586 1.644 1.701 1.755 1.806 1.852 1.894 1.930 1.961 1.985 1.998 2.000 2.000 2.000 2.000 2.000 2.000 2.000 2.000 2.000 2.000 2.060 2.307 2.649 3.058 3.516 4.012 4.536 5.083 5.644 6.214
6.082 5.473 4.872 4.284 3.715 3.173 1.668 1.211 0.818 0.520 0.408 0.357 0.306 0.256 0.207 0.164 0.138 0.118 0.097 0.076 0.056 0.036 0.019 0.006 0.000 0.000 0.000 0.000 0.000 0.000 0.000 0.000 0.000 0.000 0.000 0.000 0.000 0.000 0.000 0.000 0.000 0.000 0.000 0.000 0.000 0.000 0.000 0.000 0.000 0.000 0.000 0.001 0.003 0.004 0.006 0.006 0.007 0.007 0.007 0.007 0.007 0.007 0.007 0.007 0.007 0.006 0.006 0.004 0.003 0.001 0.000 0.000 0.000 0.000 0.000 0.000 0.000 0.000 0.000 0.000 0.000 0.001 0.010 0.028 0.053 0.080 0.109 0.139 0.171 0.204 0.237 0.269 0.300 0.329 0.356 0.380 0.400 0.415 1.426 1.433 1.438 1.441 1.438 1.432 0.430 0.435 0.442 0.454 0.465 0.476 0.487 0.499 0.514 0.529 1.547 1.567 1.588 1.610 1.634 1.654 1.667 1.678 1.684 1.687 1.672 1.638 1.592 1.539 1.484 1.430 0.378 0.328 0.279 0.233 0.189 0.154 0.136 0.128 0.132 0.149 0.178 0.223 0.274 0.326 0.380 0.437 1.496 1.554 1.612 1.670 1.726 1.781 1.832 1.877 1.916 1.951 1.978 1.996 2.000 2.000 2.000 2.000 2.000 2.000 2.000 2.000 2.000 2.000 2.000 2.060 2.307 2.649 3.058 3.516 4.012 4.536 5.083 5.644 6.214
6.094 5.489 4.891 4.306 3.739 3.200 1.697 1.242 0.851 0.555 0.445 0.395 0.344 0.294 0.248 0.205 0.176 0.153 0.129 0.105 0.082 0.058 0.036 0.018 0.004 0.000 0.000 0.000 0.000 0.000 0.000 0.000 0.000 0.000 0.000 0.000 0.000 0.000 0.000 0.000 0.000 0.000 0.000 0.000 0.000 0.000 0.000 0.000 0.001 0.004 0.008 0.013 0.018 0.022 0.025 0.028 0.031 0.034 0.034 0.034 0.034 0.034 0.034 0.034 0.031 0.028 0.025 0.022 0.018 0.013 0.008 0.004 0.001 0.000 0.000 0.000 0.000 0.000 0.000 0.000 0.000 0.000 0.002 0.014 0.034 0.056 0.082 0.109 0.138 0.168 0.197 0.226 0.255 0.282 0.307 0.328 0.346 0.360 0.368 0.375 0.378 0.380 0.378 0.372 0.369 0.375 0.383 0.396 0.409 0.422 0.438 0.453 0.471 0.491 1.513 1.537 1.565 1.597 1.627 1.655 1.673 1.686 1.688 1.683 1.661 1.628 1.589 1.542 1.490 1.437 1.386 0.335 0.286 0.240 0.196 0.165 0.148 0.143 0.148 0.166 0.195 0.241 0.292 0.346 0.401 1.458 1.518 1.578 1.637 1.695 1.752 1.806 1.857 1.902 1.939 1.970 1.992 2.000 2.000 2.000 2.000 2.000 2.000 2.000 2.000 2.000 2.000 2.000 2.000 2.060 2.307 2.649 3.058 3.516 4.012 4.536 5.083 5.644 6.214
6.108 5.506 4.911 4.329 3.765 3.229 1.728 1.275 0.886 0.592 0.483 0.433 0.384 0.336 0.289 0.246 0.215 0.190 0.163 0.136 0.109 0.082 0.056 0.034 0.014 0.002 0.000 0.000 0.000 0.000 0.000 0.000 0.000 0.000 0.000 0.000 0.000 0.000 0.000 0.000 0.000 0.000 0.000 0.000 0.000 0.000 0.002 0.007 0.015 0.022 0.030 0.036 0.043 0.049 0.055 0.061 0.064 0.067 0.071 0.072 0.072 0.072 0.071 0.067 0.064 0.061 0.055 0.049 0.043 0.036 0.029 0.021 0.013 0.005 0.001 0.000 0.000 0.000 0.000 0.000 0.000 0.000 0.000 0.004 0.018 0.036 0.058 0.082 0.106 0.133 0.160 0.186 0.212 0.236 0.258 0.277 0.295 0.306 0.314 0.319 0.322 0.322 0.321 0.314 0.310 0.315 0.325 0.337 0.351 0.366 0.384 0.404 0.424 0.446 0.472 1.501 1.535 1.572 1.610 1.646 1.675 1.687 1.683 1.669 1.643 1.611 1.574 1.532 1.486 1.437 1.386 0.337 0.289 0.242 0.199 0.173 0.158 0.155 0.162 0.179 0.209 0.253 0.306 0.361 0.419 1.477 1.537 1.597 1.658 1.718 1.776 1.830 1.881 1.926 1.960 1.987 1.999 2.000 2.000 2.000 2.000 2.000 2.000 2.000 2.000 2.000 2.000 2.000 2.000 2.060 2.307 2.649 3.058 3.516 4.012 4.536 5.083 5.644 6.214
6.122 5.523 4.931 4.352 3.791 3.258 1.760 1.309 0.922 0.630 0.522 0.473 0.425 0.377 0.331 0.290 0.258 0.229 0.200 0.170 0.139 0.109 0.080 0.053 0.028 0.010 0.001 0.000 0.000 0.000 0.000 0.000 0.000 0.000 0.000 0.000 0.000 0.000 0.000 0.000 0.000 0.000 0.000 0.001 0.004 0.010 0.020 0.031 0.041 0.051 0.061 0.070 0.078 0.085 0.092 0.098 0.104 0.109 0.112 0.116 0.118 0.116 0.112 0.109 0.104 0.098 0.092 0.085 0.076 0.067 0.057 0.047 0.036 0.025 0.014 0.004 0.001 0.000 0.000 0.000 0.000 0.000 0.000 0.000 0.006 0.019 0.036 0.056 0.077 0.100 0.124 0.147 0.170 0.192 0.213 0.230 0.244 0.254 0.262 0.266 0.267 0.267 0.264 0.260 0.253 0.256 0.266 0.280 0.293 0.310 0.329 0.350 0.374 0.398 0.427 1.458 1.496 1.534 1.575 1.617 1.659 1.672 1.661 1.643 1.617 1.587 1.554 1.516 1.474 1.428 1.381 0.333 0.286 0.240 0.199 0.175 0.164 0.163 0.172 0.189 0.219 0.265 0.319 0.375 1.433 1.492 1.553 1.615 1.677 1.737 1.796 1.852 1.903 1.948 1.980 1.998 2.000 2.000 2.000 2.000 2.000 2.000 2.000 2.000 2.000 2.000 2.000 2.000 2.000 2.060 2.307 2.649 3.058 3.516 4.012 4.536 5.083 5.644 6.214
6.137 5.541 4.952 4.375 3.818 3.287 2.792 2.344 1.959 1.668 1.561 1.515 1.467 0.420 0.376 0.334 0.301 0.269 0.236 0.203 0.170 0.136 0.104 0.073 0.046 0.022 0.004 0.000 0.000 0.000 0.000 0.000 0.000 0.000 0.000 0.000 0.000 0.000 0.000 0.000 0.000 0.001 0.005 0.013 0.023 0.035 0.049 0.062 0.075 0.087 0.099 0.109 0.119 0.128 0.136 0.143 0.149 0.155 0.160 0.164 0.165 0.164 0.160 0.155 0.149 0.143 0.135 0.125 0.115 0.103 0.091 0.078 0.064 0.050 0.036 0.022 0.010 0.002 0.000 0.000 0.000 0.000 0.000 0.000 0.000 0.006 0.018 0.034 0.051 0.070 0.091 0.111 0.131 0.151 0.169 0.183 0.196 0.206 0.213 0.216 0.216 0.215 0.211 0.208 0.201 0.199 0.209 0.222 0.236 0.253 0.273 0.297 0.321 0.347 0.378 0.414 1.453 1.493 1.533 1.575 1.614 1.633 1.627 1.611 1.587 1.560 1.528 1.493 1.456 1.414 1.369 0.323 0.278 0.233 0.196 0.174 0.167 0.168 0.177 0.197 0.228 0.272 0.327 0.384 1.443 1.504 1.566 1.628 1.690 1.752 1.813 1.871 1.923 1.966 1.993 2.000 2.000 2.000 2.000 2.000 2.000 2.000 2.000 2.000 2.000 2.000 2.000 2.000 2.000 2.060 2.307 2.649 3.058 3.516 4.012 4.536 5.083 5.644 6.214
6.151 5.558 4.973 4.399 3.845 3.317 2.825 2.379 1.997 1.707 1.603 1.556 1.510 1.465 1.420 0.379 0.344 0.309 0.273 0.236 0.200 0.163 0.127 0.094 0.063 0.036 0.014 0.001 0.000 0.000 0.000 0.000 0.000 0.000 0.000 0.000 0.000 0.000 0.000 0.001 0.004 0.014 0.025 0.037 0.052 0.069 0.085 0.101 0.116 0.129 0.142 0.154 0.165 0.175 0.184 0.193 0.199 0.206 0.212 0.216 0.216 0.216 0.212 0.206 0.199 0.191 0.181 0.170 0.157 0.144 0.129 0.113 0.097 0.081 0.063 0.046 0.028 0.014 0.004 0.000 0.000 0.000 0.000 0.000 0.000 0.000 0.004 0.014 0.028 0.043 0.060 0.077 0.094 0.110 0.126 0.140 0.151 0.160 0.166 0.170 0.170 0.166 0.163 0.158 0.152 0.148 0.154 0.164 0.180 0.198 0.217 0.242 0.266 0.296 0.330 0.369 0.408 1.449 1.491 1.531 1.563 1.583 1.582 1.570 1.551 1.526 1.497 1.466 1.431 1.392 1.351 0.309 0.265 0.223 0.188 0.170 0.165 0.167 0.179 0.200 0.231 0.279 0.333 0.391 1.452 1.513 1.576 1.638 1.701 1.763 1.824 1.883 1.936 1.979 1.999 2.000 2.000 2.000 2.000 2.000 2.000 2.000 2.000 2.000 2.000 2.000 2.000 2.000 2.000 2.060 2.307 2.649 3.058 3.516 4.012 4.536 5.083 5.644 6.214
6.164 5.575 4.993 4.423 3.872 3.348 2.858 2.415 2.035 1.747 1.644 1.599 1.555 1.509 1.465 1.423 0.386 0.348 0.309 0.269 0.229 0.190 0.151 0.114 0.081 0.050 0.025 0.005 0.000 0.000 0.000 0.000 0.000 0.000 0.000 0.000 0.000 0.000 0.002 0.010 0.022 0.036 0.051 0.068 0.087 0.106 0.125 0.143 0.160 0.175 0.190 0.202 0.215 0.227 0.236 0.246 0.254 0.260 0.266 0.271 0.271 0.271 0.266 0.260 0.252 0.243 0.231 0.218 0.204 0.188 0.172 0.154 0.135 0.115 0.095 0.075 0.054 0.035 0.018 0.006 0.000 0.000 0.000 0.000 0.000 0.000 0.000 0.002 0.010 0.020 0.032 0.047 0.061 0.075 0.088 0.100 0.110 0.117 0.123 0.126 0.126 0.125 0.120 0.114 0.108 0.102 0.104 0.112 0.125 0.143 0.165 0.189 0.215 0.249 0.287 0.327 0.369 0.411 1.449 1.483 1.510 1.529 1.533 1.523 1.509 1.488 1.462 1.434 1.402 1.367 0.329 0.290 0.249 0.209 0.177 0.165 0.158 0.164 0.177 0.199 0.233 0.283 0.340 0.398 1.458 1.520 1.583 1.646 1.709 1.771 1.832 1.889 1.944 1.989 2.000 2.000 2.000 2.000 2.000 2.000 2.000 2.000 2.000 2.000 2.000 2.000 2.000 2.000 2.000 2.060 2.307 2.649 3.058 3.516 4.012 4.536 5.083 5.644 6.214
6.177 5.591 5.012 4.446 3.898 3.378 2.891 2.451 2.073 1.788 1.686 1.644 1.599 1.554 1.509 1.468 1.428 0.386 0.344 0.301 0.258 0.215 0.173 0.135 0.097 0.064 0.036 0.013 0.001 0.000 0.000 0.000 0.000 0.000 0.000 0.000 0.000 0.004 0.014 0.028 0.046 0.063 0.083 0.103 0.125 0.147 0.169 0.188 0.207 0.225 0.241 0.255 0.268 0.281 0.292 0.302 0.311 0.318 0.324 0.327 0.330 0.327 0.324 0.317 0.308 0.297 0.284 0.269 0.253 0.236 0.217 0.197 0.176 0.154 0.131 0.108 0.085 0.061 0.040 0.021 0.006 0.000 0.000 0.000 0.000 0.000 0.000 0.000 0.001 0.004 0.012 0.021 0.033 0.043 0.054 0.064 0.073 0.080 0.083 0.087 0.088 0.087 0.083 0.078 0.071 0.064 0.059 0.065 0.077 0.094 0.115 0.142 0.175 0.214 0.253 0.293 0.332 0.369 0.403 1.434 1.458 1.475 1.480 1.477 1.465 1.446 1.424 1.399 1.370 1.338 0.303 0.267 0.230 0.193 0.164 0.153 0.149 0.157 0.171 0.194 0.233 0.287 0.343 0.403 1.464 1.526 1.589 1.653 1.716 1.778 1.838 1.895 1.946 1.989 2.000 2.000 2.000 2.000 2.000 2.000 2.000 2.000 2.000 2.000 2.000 2.000 2.000 2.000 2.000 2.060 2.307 2.649 3.058 3.516 4.012 4.536 5.083 5.644 6.214
6.189 5.606 5.030 4.468 3.924 3.407 2.925 2.488 2.113 1.830 1.729 1.688 1.644 1.598 1.554 1.511 1.468 1.422 0.376 0.330 0.284 0.239 0.195 0.154 0.113 0.078 0.047 0.021 0.004 0.000 0.000 0.000 0.000 0.000 0.000 0.000 0.006 0.019 0.036 0.056 0.076 0.096 0.119 0.142 0.167 0.192 0.215 0.237 0.258 0.277 0.295 0.311 0.325 0.338 0.350 0.360 0.370 0.378 0.384 0.387 0.390 0.387 0.384 0.376 0.366 0.353 0.339 0.323 0.305 0.286 0.266 0.243 0.221 0.196 0.171 0.145 0.119 0.092 0.067 0.043 0.023 0.006 0.000 0.000 0.000 0.000 0.000 0.000 0.000 0.000 0.001 0.004 0.010 0.018 0.026 0.033 0.039 0.046 0.050 0.053 0.053 0.053 0.051 0.047 0.042 0.035 0.028 0.029 0.039 0.056 0.082 0.113 0.147 0.184 0.220 0.257 0.293 0.326 0.357 0.385 1.406 1.421 1.428 1.428 1.418 1.404 1.386 1.363 1.337 0.308 0.276 0.244 0.210 0.175 0.147 0.137 0.137 0.144 0.162 0.189 0.232 0.287 0.345 0.406 1.467 1.529 1.592 1.656 1.719 1.781 1.840 1.895 1.945 1.983 1.999 2.000 2.000 2.000 2.000 2.000 2.000 2.000 2.000 2.000 2.000 2.000 2.000 2.000 2.000 2.060 2.307 2.649 3.058 3.516 4.012 4.536 5.083 5.644 6.214
6.199 5.619 5.046 4.487 3.948 3.435 2.957 2.524 2.152 1.871 1.774 1.733 1.688 1.643 1.598 1.551 1.503 1.455 0.405 0.356 0.307 0.258 0.213 0.170 0.129 0.091 0.057 0.029 0.008 0.000 0.000 0.000 0.000 0.000 0.001 0.009 0.025 0.045 0.065 0.089 0.112 0.136 0.161 0.187 0.213 0.238 0.264 0.288 0.310 0.331 0.350 0.368 0.383 0.397 0.410 0.421 0.431 0.440 0.445 0.448 0.451 0.448 0.445 0.437 0.425 0.412 0.396 0.379 0.360 0.339 0.316 0.292 0.267 0.241 0.213 0.185 0.155 0.125 0.097 0.070 0.046 0.023 0.006 0.000 0.000 0.000 0.000 0.000 0.000 0.000 0.000 0.000 0.000 0.002 0.005 0.010 0.014 0.019 0.022 0.025 0.026 0.026 0.025 0.022 0.018 0.013 0.008 0.006 0.015 0.035 0.061 0.089 0.120 0.154 0.187 0.220 0.253 0.283 0.311 0.336 0.355 0.368 1.377 1.377 1.372 1.361 1.345 0.325 0.302 0.276 0.248 0.218 0.186 0.154 0.129 0.120 0.121 0.130 0.151 0.183 0.232 0.287 0.343 0.403 1.464 1.527 1.591 1.654 1.717 1.779 1.838 1.893 1.940 1.977 1.996 2.000 2.000 2.000 2.000 2.000 2.000 2.000 2.000 2.000 2.000 2.000 2.000 2.000 2.000 2.060 2.307 2.649 3.058 3.516 4.012 4.536 5.083 5.644 6.214
6.207 5.630 5.061 4.505 3.969 3.461 2.988 2.560 2.192 1.914 1.819 1.777 1.733 1.686 1.638 1.588 1.537 1.485 1.432 0.380 0.328 0.277 0.230 0.183 0.140 0.102 0.067 0.036 0.013 0.001 0.000 0.000 0.000 0.002 0.012 0.030 0.051 0.075 0.100 0.126 0.152 0.178 0.206 0.234 0.262 0.289 0.315 0.340 0.364 0.387 0.407 0.426 0.443 1.458 1.470 1.483 1.493 1.502 1.508 1.511 1.513 1.511 1.507 1.499 1.486 1.472 1.455 1.436 0.415 0.393 0.369 0.343 0.316 0.287 0.256 0.225 0.193 0.160 0.128 0.098 0.070 0.043 0.021 0.006 0.000 0.000 0.000 0.000 0.000 0.000 0.000 0.000 0.000 0.000 0.000 0.000 0.001 0.003 0.004 0.006 0.006 0.006 0.006 0.004 0.003 0.001 0.000 0.000 0.004 0.018 0.040 0.066 0.093 0.123 0.154 0.184 0.213 0.241 0.265 0.287 0.306 0.318 0.326 0.328 0.324 0.316 0.303 0.287 0.267 0.244 0.218 0.191 0.163 0.134 0.109 0.099 0.101 0.115 0.140 0.177 0.228 0.282 0.340 0.400 1.461 1.523 1.586 1.649 1.712 1.773 1.832 1.886 1.932 1.970 1.992 2.000 2.000 2.000 2.000 2.000 2.000 2.000 2.000 2.000 2.000 2.000 2.000 2.000 2.000 2.060 2.307 2.649 3.058 3.516 4.012 4.536 5.083 5.644 6.214
6.212 5.639 5.072 4.519 3.987 3.484 3.016 2.594 2.232 1.956 1.863 1.822 1.775 1.726 1.675 1.622 1.567 1.512 1.457 0.401 0.347 0.295 0.244 0.196 0.151 0.110 0.074 0.043 0.018 0.003 0.000 0.000 0.004 0.015 0.033 0.056 0.081 0.108 0.136 0.166 0.194 0.224 0.253 0.283 0.313 0.342 0.369 0.395 0.420 0.444 0.466 1.486 1.504 1.520 1.532 1.545 1.556 1.565 1.572 1.575 1.576 1.575 1.570 1.561 1.548 1.532 1.514 1.495 1.472 1.449 0.423 0.396 0.365 0.334 0.301 0.267 0.232 0.196 0.162 0.128 0.097 0.067 0.040 0.018 0.004 0.000 0.000 0.000 0.000 0.000 0.000 0.000 0.000 0.000 0.000 0.000 0.000 0.000 0.000 0.000 0.000 0.000 0.000 0.000 0.000 0.000 0.000 0.000 0.000 0.006 0.021 0.042 0.067 0.093 0.120 0.147 0.174 0.198 0.221 0.242 0.258 0.270 0.276 0.280 0.278 0.271 0.261 0.247 0.230 0.210 0.186 0.163 0.137 0.110 0.087 0.078 0.080 0.098 0.128 0.171 0.221 0.276 0.333 0.392 0.453 1.515 1.577 1.639 1.701 1.762 1.820 1.874 1.922 1.962 1.987 1.999 2.000 2.000 2.000 2.000 2.000 2.000 2.000 2.000 2.000 2.000 2.000 2.000 2.000 2.060 2.307 2.649 3.058 3.516 4.012 4.536 5.083 5.644 6.214
6.214 5.643 5.080 4.530 4.002 3.501 3.038 2.624 2.270 1.999 1.908 1.865 1.815 1.763 1.708 1.652 1.593 1.535 1.476 1.419 0.364 0.309 0.257 0.207 0.160 0.117 0.080 0.047 0.022 0.004 0.000 0.005 0.016 0.033 0.057 0.084 0.112 0.142 0.174 0.206 0.237 0.269 0.302 0.333 0.365 0.395 0.424 0.451 1.477 1.502 1.525 1.546 1.565 1.581 1.595 1.608 1.619 1.628 1.635 1.638 1.640 1.638 1.634 1.623 1.610 1.594 1.575 1.553 1.531 1.505 1.478 1.448 0.416 0.382 0.347 0.310 0.272 0.233 0.196 0.160 0.125 0.092 0.061 0.035 0.014 0.002 0.000 0.000 0.000 0.000 0.000 0.000 0.000 0.000 0.000 0.000 0.000 0.000 0.000 0.000 0.000 0.000 0.000 0.000 0.000 0.000 0.000 0.000 0.000 0.000 0.006 0.023 0.042 0.066 0.089 0.113 0.137 0.160 0.179 0.197 0.212 0.224 0.230 0.233 0.233 0.229 0.220 0.208 0.193 0.175 0.154 0.134 0.110 0.087 0.066 0.056 0.060 0.082 0.116 0.162 0.214 0.268 0.324 0.382 0.441 1.502 1.564 1.625 1.685 1.744 1.801 1.856 1.906 1.950 1.981 1.997 2.000 2.000 2.000 2.000 2.000 2.000 2.000 2.000 2.000 2.000 2.000 2.000 2.000 2.060 2.307 2.649 3.058 3.516 4.012 4.536 5.083 5.644 6.214
6.214 5.644 5.083 4.536 4.010 3.513 3.054 2.644 2.300 2.042 1.950 1.902 1.849 1.793 1.734 1.673 1.612 1.551 1.492 1.433 0.375 0.319 0.266 0.216 0.168 0.123 0.083 0.051 0.025 0.006 0.004 0.016 0.033 0.057 0.085 0.116 0.147 0.180 0.213 0.248 0.282 0.316 0.350 0.384 0.418 0.450 1.480 1.508 1.535 1.560 1.584 1.607 1.626 1.643 1.657 1.670 1.681 1.690 1.698 1.701 1.703 1.701 1.696 1.685 1.671 1.654 1.635 1.613 1.589 1.563 1.532 1.501 1.467 0.430 0.392 0.353 0.313 0.272 0.232 0.193 0.155 0.119 0.085 0.054 0.028 0.010 0.001 0.000 0.000 0.000 0.000 0.000 0.000 0.000 0.000 0.000 0.000 0.000 0.000 0.000 0.000 0.000 0.000 0.000 0.000 0.000 0.000 0.000 0.000 0.000 0.000 0.006 0.021 0.040 0.061 0.081 0.102 0.122 0.139 0.155 0.169 0.179 0.187 0.190 0.190 0.187 0.180 0.170 0.157 0.141 0.124 0.105 0.085 0.065 0.046 0.036 0.042 0.068 0.106 0.153 0.202 0.255 0.311 0.368 0.426 0.485 1.544 1.603 1.663 1.721 1.777 1.832 1.883 1.928 1.967 1.995 2.000 2.000 2.000 2.000 2.000 2.000 2.000 2.000 2.000 2.000 2.000 2.000 2.000 2.060 2.307 2.649 3.058 3.516 4.012 4.536 5.083 5.644 6.214
6.214 5.644 5.083 4.536 4.012 3.516 3.058 2.649 2.307 2.059 1.976 1.927 1.871 1.812 1.751 1.688 1.626 1.564 1.502 1.442 0.384 0.327 0.272 0.221 0.173 0.128 0.087 0.053 0.026 0.009 0.015 0.033 0.056 0.084 0.116 0.149 0.184 0.220 0.256 0.293 0.328 0.363 0.400 0.435 1.471 1.504 1.536 1.565 1.593 1.618 1.644 1.666 1.686 1.704 1.718 1.731 1.742 1.751 1.758 1.763 1.766 1.763 1.757 1.746 1.732 1.715 1.695 1.672 1.647 1.619 1.587 1.554 1.517 1.478 0.439 0.397 0.353 0.310 0.268 0.226 0.186 0.147 0.109 0.075 0.046 0.022 0.004 0.000 0.000 0.000 0.000 0.000 0.000 0.000 0.000 0.000 0.000 0.000 0.000 0.000 0.000 0.000 0.000 0.000 0.000 0.000 0.000 0.000 0.000 0.000 0.000 0.000 0.006 0.018 0.035 0.052 0.070 0.087 0.103 0.116 0.129 0.139 0.146 0.150 0.150 0.147 0.142 0.134 0.122 0.109 0.094 0.078 0.060 0.043 0.027 0.016 0.027 0.057 0.096 0.141 0.190 0.241 0.295 0.350 0.406 0.463 1.521 1.579 1.637 1.695 1.752 1.806 1.857 1.903 1.945 1.981 1.998 2.000 2.000 2.000 2.000 2.000 2.000 2.000 2.000 2.000 2.000 2.000 2.000 2.060 2.307 2.649 3.058 3.516 4.012 4.536 5.083 5.644 6.214
6.214 5.644 5.083 4.536 4.012 3.516 3.058 2.649 2.307 2.060 1.983 1.938 1.882 1.822 1.760 1.697 1.634 1.571 1.509 1.447 0.388 0.331 0.277 0.224 0.175 0.129 0.090 0.053 0.026 0.018 0.031 0.053 0.081 0.112 0.147 0.184 0.220 0.259 0.297 0.337 0.376 0.413 0.450 1.487 1.522 1.559 1.591 1.622 1.651 1.676 1.702 1.725 1.745 1.763 1.777 1.790 1.800 1.810 1.816 1.822 1.824 1.822 1.816 1.806 1.792 1.774 1.754 1.730 1.705 1.674 1.642 1.605 1.567 1.527 1.484 0.439 0.394 0.350 0.305 0.261 0.218 0.175 0.136 0.099 0.065 0.036 0.014 0.001 0.000 0.000 0.000 0.000 0.000 0.000 0.000 0.000 0.000 0.000 0.000 0.000 0.000 0.000 0.000 0.000 0.000 0.000 0.000 0.000 0.000 0.000 0.000 0.000 0.000 0.004 0.014 0.028 0.042 0.056 0.070 0.083 0.092 0.102 0.108 0.112 0.114 0.111 0.106 0.099 0.089 0.078 0.066 0.052 0.037 0.024 0.012 0.004 0.017 0.048 0.086 0.129 0.175 0.225 0.277 0.329 0.384 0.439 1.496 1.554 1.612 1.670 1.725 1.779 1.830 1.877 1.922 1.961 1.987 1.996 2.000 2.000 2.000 2.000 2.000 2.000 2.000 2.000 2.000 2.000 2.000 2.060 2.307 2.649 3.058 3.516 4.012 4.536 5.083 5.644 6.214
6.214 5.644 5.083 4.536 4.012 3.516 3.058 2.649 2.307 2.059 1.982 1.938 1.885 1.826 1.764 1.701 1.637 1.574 1.511 1.450 0.390 0.332 0.277 0.224 0.175 0.129 0.090 0.053 0.031 0.031 0.050 0.077 0.108 0.142 0.180 0.220 0.259 0.300 0.341 0.381 0.423 0.462 1.500 1.538 1.575 1.611 1.646 1.678 1.706 1.733 1.758 1.782 1.803 1.820 1.834 1.846 1.856 1.864 1.871 1.877 1.879 1.877 1.871 1.862 1.849 1.831 1.811 1.787 1.760 1.729 1.694 1.656 1.616 1.573 1.528 1.482 0.435 0.389 0.341 0.295 0.249 0.204 0.161 0.122 0.086 0.054 0.026 0.005 0.000 0.000 0.000 0.000 0.000 0.000 0.000 0.000 0.000 0.000 0.000 0.000 0.000 0.000 0.000 0.000 0.000 0.000 0.000 0.000 0.000 0.000 0.000 0.000 0.000 0.000 0.002 0.010 0.020 0.031 0.042 0.053 0.061 0.068 0.074 0.078 0.079 0.078 0.074 0.068 0.061 0.052 0.040 0.030 0.019 0.009 0.002 0.000 0.010 0.038 0.075 0.116 0.160 0.207 0.256 0.307 0.359 0.414 1.470 1.528 1.584 1.641 1.697 1.750 1.799 1.848 1.893 1.936 1.968 1.987 1.996 2.000 2.000 2.000 2.000 2.000 2.000 2.000 2.000 2.000 2.000 2.060 2.307 2.649 3.058 3.516 4.012 4.536 5.083 5.644 6.214
6.214 5.644 5.083 4.536 4.012 3.516 3.058 2.649 2.307 2.057 1.975 1.933 1.880 1.821 1.760 1.697 1.634 1.571 1.509 1.447 0.388 0.330 0.274 0.221 0.173 0.128 0.087 0.055 0.040 0.047 0.070 0.101 0.136 0.174 0.213 0.256 0.297 0.341 0.384 0.426 0.469 1.511 1.551 1.589 1.627 1.663 1.699 1.731 1.760 1.787 1.813 1.836 1.857 1.874 1.887 1.898 1.908 1.915 1.921 1.926 1.928 1.926 1.921 1.914 1.902 1.886 1.865 1.841 1.813 1.781 1.744 1.706 1.663 1.618 1.572 1.523 1.475 0.425 0.376 0.327 0.278 0.231 0.187 0.144 0.106 0.071 0.040 0.015 0.001 0.000 0.000 0.000 0.000 0.000 0.000 0.000 0.000 0.000 0.000 0.000 0.000 0.000 0.000 0.000 0.000 0.000 0.000 0.000 0.000 0.000 0.000 0.000 0.000 0.000 0.000 0.001 0.004 0.012 0.019 0.027 0.035 0.041 0.044 0.047 0.049 0.047 0.044 0.041 0.035 0.027 0.019 0.012 0.004 0.001 0.000 0.000 0.005 0.028 0.062 0.101 0.143 0.188 0.234 0.283 0.334 0.388 1.443 1.499 1.555 1.610 1.663 1.715 1.766 1.815 1.861 1.906 1.940 1.966 1.985 1.997 2.000 2.000 2.000 2.000 2.000 2.000 2.000 2.000 2.000 2.060 2.307 2.649 3.058 3.516 4.012 4.536 5.083 5.644 6.214
6.214 5.644 5.083 4.536 4.012 3.516 3.058 2.649 2.307 2.052 1.963 1.920 1.868 1.810 1.749 1.687 1.625 1.563 1.501 0.440 0.381 0.324 0.269 0.218 0.168 0.123 0.084 0.059 0.052 0.065 0.094 0.128 0.166 0.206 0.248 0.293 0.337 0.381 0.426 1.471 1.515 1.559 1.600 1.640 1.678 1.715 1.750 1.781 1.811 1.838 1.863 1.887 1.907 1.922 1.935 1.945 1.953 1.959 1.964 1.966 1.966 1.966 1.964 1.959 1.951 1.936 1.916 1.892 1.864 1.831 1.793 1.752 1.707 1.661 1.613 1.564 1.512 1.460 0.409 0.357 0.307 0.257 0.211 0.167 0.125 0.088 0.055 0.026 0.005 0.000 0.000 0.000 0.000 0.000 0.000 0.000 0.000 0.000 0.000 0.000 0.000 0.000 0.000 0.000 0.000 0.000 0.000 0.000 0.000 0.000 0.000 0.000 0.000 0.000 0.000 0.000 0.000 0.001 0.004 0.008 0.013 0.018 0.021 0.022 0.023 0.022 0.021 0.018 0.013 0.008 0.004 0.001 0.000 0.000 0.000 0.000 0.003 0.019 0.049 0.085 0.125 0.167 0.211 0.257 0.308 0.361 0.415 1.469 1.522 1.575 1.627 1.679 1.731 1.780 1.829 1.874 1.910 1.940 1.964 1.983 1.997 2.000 2.000 2.000 2.000 2.000 2.000 2.000 2.000 2.060 2.307 2.649 3.058 3.516 4.012 4.536 5.083 5.644 6.214
6.214 5.644 5.083 4.536 4.012 3.516 3.058 2.649 2.306 2.040 1.945 1.901 1.851 1.795 1.735 1.674 1.612 1.550 1.489 0.430 0.372 0.316 0.262 0.210 0.162 0.117 0.083 0.066 0.066 0.084 0.118 0.155 0.194 0.237 0.282 0.328 0.376 0.423 1.469 1.515 1.560 1.605 1.648 1.690 1.727 1.764 1.799 1.830 1.858 1.883 1.909 1.932 1.950 1.963 1.975 1.983 1.989 1.993 1.993 1.993 1.993 1.993 1.993 1.993 1.989 1.979 1.961 1.937 1.909 1.875 1.836 1.793 1.749 1.702 1.653 1.600 1.547 1.494 0.440 0.386 0.334 0.283 0.234 0.188 0.144 0.104 0.068 0.037 0.013 0.001 0.000 0.000 0.000 0.000 0.000 0.000 0.000 0.000 0.000 0.000 0.000 0.000 0.000 0.000 0.000 0.000 0.000 0.000 0.000 0.000 0.000 0.000 0.000 0.000 0.000 0.000 0.000 0.000 0.000 0.000 0.001 0.003 0.004 0.006 0.006 0.006 0.004 0.003 0.001 0.000 0.000 0.000 0.000 0.000 0.000 0.000 0.001 0.013 0.037 0.069 0.106 0.144 0.187 0.232 0.281 0.332 0.384 1.435 1.487 1.538 1.591 1.644 1.696 1.747 1.797 1.842 1.880 1.913 1.941 1.964 1.985 1.996 2.000 2.000 2.000 2.000 2.000 2.000 2.000 2.060 2.307 2.649 3.058 3.516 4.012 4.536 5.083 5.644 6.214
6.214 5.644 5.083 4.536 4.012 3.516 3.058 2.649 2.298 2.023 1.926 1.881 1.830 1.776 1.718 1.658 1.597 1.536 1.475 0.415 0.358 0.303 0.250 0.200 0.154 0.110 0.084 0.073 0.079 0.103 0.142 0.182 0.225 0.269 0.316 0.363 0.413 1.462 1.511 1.559 1.605 1.650 1.694 1.736 1.777 1.812 1.845 1.876 1.902 1.926 1.948 1.967 1.980 1.990 1.996 1.999 2.000 2.000 2.000 2.000 2.000 2.000 2.000 2.000 2.000 1.999 1.991 1.971 1.945 1.912 1.875 1.833 1.789 1.740 1.688 1.635 1.581 1.524 1.469 0.414 0.359 0.307 0.256 0.207 0.162 0.120 0.081 0.048 0.021 0.004 0.000 0.000 0.000 0.000 0.000 0.000 0.000 0.000 0.000 0.000 0.000 0.000 0.000 0.000 0.000 0.000 0.000 0.000 0.000 0.000 0.000 0.000 0.000 0.000 0.000 0.000 0.000 0.000 0.000 0.000 0.000 0.000 0.000 0.000 0.000 0.000 0.000 0.000 0.000 0.000 0.000 0.000 0.000 0.000 0.000 0.000 0.000 0.008 0.027 0.055 0.087 0.122 0.161 0.206 0.253 0.302 0.350 0.400 1.451 1.503 1.556 1.609 1.662 1.715 1.765 1.810 1.850 1.886 1.917 1.944 1.968 1.988 1.996 2.000 2.000 2.000 2.000 2.000 2.000 2.060 2.307 2.649 3.058 3.516 4.012 4.536 5.083 5.644 6.214
6.214 5.644 5.083 4.536 4.012 3.516 3.058 2.645 2.283 2.004 1.901 1.856 1.805 1.751 1.695 1.637 1.578 1.518 1.458 0.399 0.342 0.289 0.237 0.188 0.142 0.104 0.085 0.082 0.094 0.125 0.167 0.210 0.255 0.302 0.350 0.400 0.450 1.500 1.551 1.600 1.648 1.694 1.739 1.780 1.821 1.857 1.890 1.918 1.942 1.962 1.981 1.993 1.998 2.000 2.000 2.000 2.000 2.000 2.000 2.000 2.000 2.000 2.000 2.000 2.000 2.000 2.000 1.994 1.975 1.945 1.909 1.869 1.825 1.775 1.722 1.667 1.610 1.553 1.496 0.440 0.385 0.331 0.278 0.227 0.179 0.135 0.094 0.057 0.029 0.008 0.000 0.000 0.000 0.000 0.000 0.000 0.000 0.000 0.000 0.000 0.000 0.000 0.000 0.000 0.000 0.000 0.000 0.000 0.000 0.000 0.000 0.000 0.000 0.000 0.000 0.000 0.000 0.000 0.000 0.000 0.000 0.000 0.000 0.000 0.000 0.000 0.000 0.000 0.000 0.000 0.000 0.000 0.000 0.000 0.000 0.000 0.000 0.004 0.019 0.042 0.070 0.102 0.138 0.180 0.225 0.271 0.318 0.366 0.416 1.468 1.521 1.575 1.630 1.683 1.732 1.777 1.820 1.858 1.892 1.923 1.951 1.975 1.990 1.998 2.000 2.000 2.000 2.000 2.000 2.060 2.307 2.649 3.058 3.516 4.012 4.536 5.083 5.644 6.214
6.214 5.644 5.083 4.536 4.012 3.516 3.054 2.629 2.256 1.974 1.870 1.824 1.775 1.722 1.667 1.610 1.553 1.496 0.437 0.380 0.325 0.270 0.220 0.172 0.129 0.100 0.088 0.091 0.109 0.147 0.192 0.238 0.285 0.334 0.384 0.435 1.487 1.538 1.589 1.640 1.690 1.736 1.780 1.824 1.862 1.896 1.928 1.954 1.973 1.991 1.999 2.000 2.000 2.000 2.000 2.000 2.000 2.000 2.000 2.000 2.000 2.000 2.000 2.000 2.000 2.000 2.000 2.000 1.994 1.971 1.939 1.901 1.856 1.805 1.751 1.695 1.638 1.581 1.524 1.467 0.410 0.355 0.300 0.248 0.198 0.150 0.106 0.067 0.036 0.013 0.001 0.000 0.000 0.000 0.000 0.000 0.000 0.000 0.000 0.000 0.000 0.000 0.000 0.000 0.000 0.000 0.000 0.000 0.000 0.000 0.000 0.000 0.000 0.000 0.000 0.000 0.000 0.000 0.000 0.000 0.000 0.000 0.000 0.000 0.000 0.000 0.000 0.000 0.000 0.000 0.000 0.000 0.000 0.000 0.000 0.001 0.003 0.005 0.017 0.037 0.060 0.086 0.118 0.156 0.198 0.241 0.285 0.331 0.381 0.434 0.488 1.543 1.596 1.648 1.697 1.743 1.788 1.828 1.865 1.900 1.932 1.961 1.981 1.993 1.999 2.000 2.000 2.000 2.000 2.060 2.307 2.649 3.058 3.516 4.012 4.536 5.083 5.644 6.214
6.214 5.644 5.083 4.536 4.008 3.505 3.031 2.596 2.221 1.938 1.834 1.786 1.738 1.688 1.635 1.581 1.524 1.469 0.414 0.358 0.304 0.251 0.201 0.156 0.117 0.098 0.093 0.099 0.126 0.170 0.216 0.265 0.315 0.365 0.416 1.469 1.522 1.575 1.627 1.678 1.727 1.777 1.821 1.862 1.899 1.932 1.961 1.981 1.994 2.000 2.000 2.000 2.000 2.000 2.000 2.000 2.000 2.000 2.000 2.000 2.000 2.000 2.000 2.000 2.000 2.000 2.000 2.000 2.000 1.991 1.963 1.928 1.883 1.832 1.777 1.722 1.666 1.609 1.550 1.492 0.434 0.377 0.321 0.267 0.215 0.166 0.119 0.078 0.043 0.018 0.003 0.000 0.000 0.000 0.000 0.000 0.000 0.000 0.000 0.000 0.000 0.000 0.000 0.000 0.000 0.000 0.000 0.000 0.000 0.000 0.000 0.000 0.000 0.000 0.000 0.000 0.000 0.000 0.000 0.000 0.000 0.000 0.000 0.000 0.000 0.000 0.000 0.000 0.000 0.000 0.000 0.000 0.001 0.004 0.008 0.013 0.018 0.021 0.027 0.043 0.063 0.086 0.113 0.144 0.179 0.214 0.254 0.299 0.349 0.402 0.455 0.508 1.561 1.613 1.662 1.710 1.755 1.798 1.838 1.875 1.911 1.943 1.969 1.986 1.997 2.000 2.000 2.000 2.000 2.060 2.307 2.649 3.058 3.516 4.012 4.536 5.083 5.644 6.214
6.214 5.643 5.078 4.526 3.992 3.480 2.998 2.559 2.182 1.896 1.794 1.747 1.699 1.650 1.599 1.547 1.494 0.440 0.386 0.334 0.281 0.231 0.182 0.138 0.107 0.096 0.096 0.111 0.147 0.192 0.242 0.292 0.345 0.397 0.450 1.503 1.556 1.610 1.663 1.715 1.764 1.812 1.857 1.896 1.932 1.962 1.985 1.996 2.000 2.000 2.000 2.000 2.000 2.000 2.000 2.000 2.000 2.000 2.000 2.000 2.000 2.000 2.000 2.000 2.000 2.000 2.000 2.000 2.000 1.999 1.983 1.951 1.906 1.856 1.803 1.749 1.692 1.634 1.575 1.515 1.457 0.398 0.341 0.285 0.231 0.180 0.132 0.090 0.051 0.022 0.004 0.000 0.000 0.000 0.000 0.000 0.000 0.000 0.000 0.000 0.000 0.000 0.000 0.000 0.000 0.000 0.000 0.000 0.000 0.000 0.000 0.000 0.000 0.000 0.000 0.000 0.000 0.000 0.000 0.000 0.000 0.000 0.000 0.000 0.000 0.000 0.000 0.000 0.000 0.000 0.001 0.005 0.013 0.021 0.029 0.036 0.041 0.044 0.048 0.058 0.074 0.092 0.116 0.143 0.171 0.201 0.233 0.271 0.318 0.368 0.420 0.473 1.525 1.576 1.626 1.675 1.720 1.764 1.807 1.847 1.887 1.924 1.954 1.977 1.993 2.000 2.000 2.000 2.000 2.060 2.307 2.649 3.058 3.516 4.012 4.536 5.083 5.644 6.214
6.212 5.637 5.067 4.509 3.970 3.451 2.965 2.523 2.143 1.855 1.752 1.706 1.658 1.610 1.560 1.510 1.460 0.409 0.357 0.307 0.257 0.208 0.162 0.120 0.099 0.094 0.103 0.126 0.166 0.215 0.265 0.318 0.372 0.427 1.482 1.536 1.591 1.644 1.697 1.750 1.799 1.845 1.890 1.928 1.961 1.986 1.998 2.000 2.000 2.000 2.000 2.000 2.000 2.000 2.000 2.000 2.000 2.000 2.000 2.000 2.000 2.000 2.000 2.000 2.000 2.000 2.000 2.000 2.000 2.000 1.995 1.969 1.926 1.878 1.827 1.772 1.715 1.657 1.597 1.536 1.476 0.417 0.358 0.301 0.246 0.193 0.145 0.100 0.060 0.027 0.006 0.000 0.000 0.000 0.000 0.000 0.000 0.000 0.000 0.000 0.000 0.000 0.000 0.000 0.000 0.000 0.000 0.000 0.000 0.000 0.000 0.000 0.000 0.000 0.000 0.000 0.000 0.000 0.000 0.000 0.000 0.000 0.000 0.000 0.000 0.000 0.000 0.000 0.001 0.004 0.014 0.025 0.036 0.047 0.057 0.065 0.071 0.076 0.079 0.081 0.092 0.105 0.122 0.145 0.169 0.192 0.219 0.254 0.293 0.335 0.385 0.436 0.487 1.538 1.588 1.637 1.684 1.731 1.775 1.818 1.861 1.900 1.935 1.964 1.987 1.999 2.000 2.000 2.000 2.060 2.307 2.649 3.058 3.516 4.012 4.536 5.083 5.644 6.214
6.205 5.625 5.052 4.490 3.945 3.421 2.931 2.487 2.105 1.815 1.711 1.664 1.616 1.568 1.520 1.472 0.424 0.376 0.327 0.278 0.231 0.186 0.141 0.105 0.092 0.095 0.111 0.141 0.186 0.237 0.289 0.344 0.399 0.455 1.512 1.568 1.623 1.678 1.730 1.782 1.832 1.877 1.920 1.956 1.985 1.999 2.000 2.000 2.000 2.000 2.000 2.000 2.000 2.000 2.000 2.000 2.000 2.000 2.000 2.000 2.000 2.000 2.000 2.000 2.000 2.000 2.000 2.000 2.000 2.000 1.999 1.981 1.942 1.898 1.847 1.793 1.736 1.677 1.616 1.556 1.494 0.433 0.374 0.315 0.259 0.206 0.156 0.109 0.069 0.033 0.007 0.000 0.000 0.000 0.000 0.000 0.000 0.000 0.000 0.000 0.000 0.000 0.000 0.000 0.000 0.000 0.000 0.000 0.000 0.000 0.000 0.000 0.000 0.000 0.000 0.000 0.000 0.000 0.000 0.000 0.000 0.000 0.000 0.000 0.000 0.000 0.000 0.002 0.010 0.022 0.036 0.050 0.064 0.078 0.089 0.099 0.107 0.112 0.115 0.115 0.116 0.122 0.132 0.150 0.169 0.188 0.209 0.240 0.273 0.310 0.352 0.398 0.449 0.500 0.550 1.600 1.649 1.697 1.743 1.789 1.834 1.877 1.914 1.946 1.975 1.997 2.000 2.000 2.000 2.060 2.307 2.649 3.058 3.516 4.012 4.536 5.083 5.644 6.214
6.195 5.612 5.034 4.468 3.918 3.391 2.898 2.452 2.067 1.776 1.670 1.623 1.575 1.527 1.480 0.433 0.386 0.340 0.295 0.249 0.204 0.161 0.119 0.093 0.088 0.097 0.120 0.160 0.208 0.259 0.314 0.369 0.426 1.483 1.540 1.597 1.654 1.709 1.763 1.813 1.862 1.907 1.947 1.980 1.998 2.000 2.000 2.000 2.000 2.000 2.000 2.000 2.000 2.000 2.000 2.000 2.000 2.000 2.000 2.000 2.000 2.000 2.000 2.000 2.000 2.000 2.000 2.000 2.000 2.000 2.000 1.989 1.954 1.913 1.864 1.810 1.753 1.694 1.633 1.572 1.510 0.448 0.387 0.328 0.271 0.217 0.165 0.119 0.076 0.039 0.009 0.000 0.000 0.000 0.000 0.000 0.000 0.000 0.000 0.000 0.000 0.000 0.000 0.000 0.000 0.000 0.000 0.000 0.000 0.000 0.000 0.000 0.000 0.000 0.000 0.000 0.000 0.000 0.000 0.000 0.000 0.000 0.000 0.000 0.000 0.000 0.004 0.014 0.027 0.044 0.062 0.079 0.096 0.113 0.126 0.137 0.146 0.152 0.155 0.153 0.149 0.147 0.150 0.159 0.172 0.186 0.204 0.229 0.257 0.289 0.323 0.364 0.411 0.462 0.513 0.563 1.613 1.662 1.710 1.759 1.805 1.850 1.890 1.927 1.961 1.990 2.000 2.000 2.000 2.060 2.307 2.649 3.058 3.516 4.012 4.536 5.083 5.644 6.214
6.184 5.597 5.015 4.445 3.891 3.361 2.865 2.417 2.030 1.738 1.630 1.582 1.533 1.485 0.439 0.395 0.350 0.306 0.263 0.220 0.177 0.138 0.101 0.084 0.085 0.102 0.132 0.179 0.229 0.281 0.336 0.393 0.451 1.509 1.567 1.625 1.681 1.736 1.790 1.841 1.888 1.932 1.967 1.993 2.000 2.000 2.000 2.000 2.000 2.000 2.000 2.000 2.000 2.000 2.000 2.000 2.000 2.000 2.000 2.000 2.000 2.000 2.000 2.000 2.000 2.000 2.000 2.000 2.000 2.000 2.000 1.993 1.965 1.925 1.877 1.824 1.767 1.708 1.647 1.585 1.523 0.461 0.400 0.341 0.283 0.227 0.175 0.127 0.082 0.045 0.012 0.000 0.000 0.000 0.000 0.000 0.000 0.000 0.000 0.000 0.000 0.000 0.000 0.000 0.000 0.000 0.000 0.000 0.000 0.000 0.000 0.000 0.000 0.000 0.000 0.000 0.000 0.000 0.000 0.000 0.000 0.000 0.000 0.000 0.000 0.005 0.016 0.031 0.050 0.070 0.091 0.111 0.131 0.149 0.164 0.179 0.189 0.195 0.196 0.195 0.190 0.182 0.174 0.174 0.180 0.187 0.201 0.220 0.245 0.272 0.302 0.334 0.375 0.424 0.475 0.525 1.576 1.626 1.677 1.727 1.776 1.822 1.864 1.904 1.942 1.977 1.998 2.000 2.000 2.060 2.307 2.649 3.058 3.516 4.012 4.536 5.083 5.644 6.214
6.171 5.580 4.995 4.422 3.864 3.331 2.833 2.382 1.994 1.700 1.592 1.541 1.492 1.444 0.397 0.354 0.313 0.271 0.231 0.191 0.151 0.115 0.085 0.076 0.084 0.107 0.147 0.196 0.248 0.302 0.358 0.415 0.474 1.533 1.593 1.651 1.707 1.762 1.814 1.865 1.910 1.950 1.982 1.999 2.000 2.000 2.000 2.000 2.000 2.000 2.000 2.000 2.000 2.000 2.000 2.000 2.000 2.000 2.000 2.000 2.000 2.000 2.000 2.000 2.000 2.000 2.000 2.000 2.000 2.000 2.000 1.994 1.973 1.935 1.889 1.837 1.780 1.721 1.660 1.598 1.536 0.474 0.412 0.351 0.292 0.236 0.183 0.133 0.088 0.048 0.016 0.001 0.000 0.000 0.000 0.000 0.000 0.000 0.000 0.000 0.000 0.000 0.000 0.000 0.000 0.000 0.000 0.000 0.000 0.000 0.000 0.000 0.000 0.000 0.000 0.000 0.000 0.000 0.000 0.000 0.000 0.000 0.000 0.000 0.004 0.016 0.033 0.052 0.075 0.099 0.123 0.146 0.169 0.189 0.207 0.221 0.233 0.240 0.242 0.240 0.233 0.223 0.209 0.196 0.192 0.191 0.200 0.214 0.233 0.255 0.280 0.309 0.345 0.386 0.436 0.487 1.539 1.592 1.645 1.696 1.746 1.792 1.837 1.880 1.922 1.960 1.988 1.999 2.000 2.060 2.307 2.649 3.058 3.516 4.012 4.536 5.083 5.644 6.214
6.157 5.563 4.974 4.398 3.838 3.302 2.801 2.348 1.959 1.663 1.553 1.503 1.452 0.403 0.356 0.313 0.275 0.235 0.198 0.161 0.125 0.091 0.070 0.068 0.084 0.117 0.163 0.212 0.266 0.322 0.379 0.437 1.496 1.556 1.615 1.674 1.731 1.786 1.836 1.885 1.929 1.966 1.993 2.000 2.000 2.000 2.000 2.000 2.000 2.000 2.000 2.000 2.000 2.000 2.000 2.000 2.000 2.000 2.000 2.000 2.000 2.000 2.000 2.000 2.000 2.000 2.000 2.000 2.000 2.000 2.000 1.996 1.978 1.943 1.898 1.846 1.791 1.732 1.671 1.609 1.546 0.483 0.421 0.360 0.302 0.244 0.190 0.139 0.093 0.052 0.019 0.003 0.000 0.000 0.000 0.000 0.000 0.000 0.000 0.000 0.000 0.000 0.000 0.000 0.000 0.000 0.000 0.000 0.000 0.000 0.000 0.000 0.000 0.000 0.000 0.000 0.000 0.000 0.000 0.000 0.000 0.000 0.000 0.002 0.014 0.031 0.052 0.075 0.102 0.128 0.155 0.182 0.208 0.230 0.251 0.268 0.279 0.286 0.289 0.286 0.278 0.265 0.249 0.230 0.213 0.201 0.200 0.210 0.223 0.241 0.261 0.286 0.317 0.352 0.398 0.451 1.505 1.558 1.611 1.664 1.713 1.762 1.808 1.854 1.899 1.942 1.973 1.994 2.000 2.060 2.307 2.649 3.058 3.516 4.012 4.536 5.083 5.644 6.214
6.143 5.546 4.954 4.374 3.812 3.274 2.771 2.316 1.924 1.628 1.516 0.465 0.414 0.364 0.316 0.272 0.235 0.200 0.165 0.131 0.098 0.069 0.059 0.063 0.089 0.129 0.177 0.228 0.282 0.339 0.398 0.457 1.517 1.578 1.637 1.696 1.753 1.808 1.859 1.904 1.947 1.979 1.998 2.000 2.000 2.000 2.000 2.000 2.000 2.000 2.000 2.000 2.000 2.000 2.000 2.000 2.000 2.000 2.000 2.000 2.000 2.000 2.000 2.000 2.000 2.000 2.000 2.000 2.000 2.000 2.000 1.997 1.981 1.948 1.905 1.855 1.800 1.742 1.681 1.619 1.556 1.493 0.431 0.369 0.308 0.251 0.196 0.145 0.096 0.055 0.022 0.004 0.000 0.000 0.000 0.000 0.000 0.000 0.000 0.000 0.000 0.000 0.000 0.000 0.000 0.000 0.000 0.000 0.000 0.000 0.000 0.000 0.000 0.000 0.000 0.000 0.000 0.000 0.000 0.000 0.000 0.000 0.001 0.010 0.027 0.047 0.072 0.099 0.128 0.158 0.189 0.219 0.247 0.273 0.296 0.315 0.328 0.335 0.337 0.333 0.323 0.309 0.291 0.268 0.245 0.223 0.207 0.209 0.217 0.228 0.245 0.265 0.291 0.322 0.364 0.417 0.470 1.524 1.577 1.629 1.680 1.729 1.777 1.825 1.872 1.917 1.953 1.981 1.998 2.060 2.307 2.649 3.058 3.516 4.012 4.536 5.083 5.644 6.214
6.129 5.528 4.933 4.351 3.787 3.246 2.741 2.284 0.891 0.593 0.481 0.428 0.376 0.326 0.277 0.233 0.198 0.165 0.133 0.103 0.073 0.052 0.049 0.062 0.096 0.141 0.190 0.243 0.298 0.355 0.414 0.475 1.536 1.597 1.658 1.717 1.774 1.828 1.878 1.922 1.960 1.989 2.000 2.000 2.000 2.000 2.000 2.000 2.000 2.000 2.000 2.000 2.000 2.000 2.000 2.000 2.000 2.000 2.000 2.000 2.000 2.000 2.000 2.000 2.000 2.000 2.000 2.000 2.000 2.000 2.000 1.999 1.984 1.952 1.910 1.861 1.807 1.749 1.688 1.626 1.562 1.499 0.436 0.374 0.315 0.257 0.201 0.148 0.100 0.058 0.025 0.006 0.000 0.000 0.000 0.000 0.000 0.000 0.000 0.000 0.000 0.000 0.000 0.000 0.000 0.000 0.000 0.000 0.000 0.000 0.000 0.000 0.000 0.000 0.000 0.000 0.000 0.000 0.000 0.000 0.000 0.000 0.004 0.020 0.041 0.065 0.092 0.123 0.155 0.189 0.222 0.255 0.287 0.315 0.341 0.363 0.378 1.386 1.386 1.381 1.370 1.353 0.332 0.307 0.280 0.251 0.225 0.215 0.215 0.220 0.232 0.248 0.269 0.298 0.334 0.383 0.436 1.489 1.541 1.592 1.643 1.692 1.743 1.793 1.841 1.887 1.924 1.958 1.985 2.059 2.307 2.649 3.058 3.516 4.012 4.536 5.083 5.644 6.214
6.114 5.511 4.913 4.328 3.761 3.220 1.713 1.254 0.859 0.559 0.446 0.393 0.340 0.289 0.239 0.195 0.161 0.131 0.103 0.076 0.050 0.037 0.041 0.067 0.106 0.153 0.202 0.255 0.312 0.371 0.430 1.491 1.553 1.614 1.675 1.734 1.791 1.845 1.895 1.937 1.972 1.995 2.000 2.000 2.000 2.000 2.000 2.000 2.000 2.000 2.000 2.000 2.000 2.000 2.000 2.000 2.000 2.000 2.000 2.000 2.000 2.000 2.000 2.000 2.000 2.000 2.000 2.000 2.000 2.000 2.000 2.000 1.988 1.955 1.913 1.865 1.811 1.753 1.692 1.629 1.565 1.502 0.439 0.377 0.317 0.259 0.203 0.151 0.103 0.061 0.028 0.006 0.000 0.000 0.000 0.000 0.000 0.000 0.000 0.000 0.000 0.000 0.000 0.000 0.000 0.000 0.000 0.000 0.000 0.000 0.000 0.000 0.000 0.000 0.000 0.000 0.000 0.000 0.000 0.000 0.000 0.001 0.012 0.031 0.055 0.082 0.113 0.146 0.182 0.219 0.255 0.292 0.326 0.358 0.387 1.411 1.428 1.437 1.437 1.430 1.417 1.396 1.371 1.343 0.313 0.281 0.248 0.224 0.215 0.215 0.222 0.233 0.250 0.275 0.306 0.349 0.401 0.452 1.503 1.554 1.605 1.656 1.708 1.759 1.810 1.855 1.895 1.930 1.962 2.046 2.305 2.649 3.058 3.516 4.012 4.536 5.083 5.644 6.214
6.101 5.495 4.894 4.306 3.737 3.195 1.686 1.225 0.828 0.527 0.413 0.358 0.305 0.254 0.204 0.159 0.127 0.100 0.075 0.052 0.031 0.026 0.040 0.075 0.116 0.162 0.214 0.268 0.325 0.384 0.445 1.507 1.568 1.630 1.691 1.750 1.807 1.861 1.909 1.951 1.981 1.998 2.000 2.000 2.000 2.000 2.000 2.000 2.000 2.000 2.000 2.000 2.000 2.000 2.000 2.000 2.000 2.000 2.000 2.000 2.000 2.000 2.000 2.000 2.000 2.000 2.000 2.000 2.000 2.000 2.000 2.000 1.991 1.958 1.916 1.867 1.812 1.753 1.692 1.630 1.567 1.503 0.440 0.378 0.317 0.259 0.203 0.153 0.106 0.064 0.031 0.007 0.000 0.000 0.000 0.000 0.000 0.000 0.000 0.000 0.000 0.000 0.000 0.000 0.000 0.000 0.000 0.000 0.000 0.000 0.000 0.000 0.000 0.000 0.000 0.000 0.000 0.000 0.000 0.000 0.000 0.004 0.019 0.042 0.069 0.100 0.134 0.170 0.209 0.248 0.288 0.328 0.366 1.401 1.434 1.460 1.479 1.488 1.488 1.478 1.461 1.438 1.411 1.380 1.346 0.311 0.275 0.240 0.218 0.209 0.210 0.217 0.232 0.251 0.278 0.315 0.365 0.415 0.465 1.516 1.568 1.621 1.675 1.728 1.779 1.825 1.867 1.905 1.938 2.026 2.294 2.646 3.058 3.516 4.012 4.536 5.083 5.644 6.214
6.088 5.479 4.876 4.285 3.714 3.169 1.660 1.198 0.800 0.497 0.381 0.326 0.271 0.219 0.169 0.124 0.094 0.070 0.050 0.030 0.015 0.021 0.046 0.082 0.125 0.172 0.224 0.279 0.338 0.397 0.458 1.520 1.582 1.644 1.705 1.764 1.821 1.874 1.922 1.962 1.989 2.000 2.000 2.000 2.000 2.000 2.000 2.000 2.000 2.000 2.000 2.000 2.000 2.000 2.000 2.000 2.000 2.000 2.000 2.000 2.000 2.000 2.000 2.000 2.000 2.000 2.000 2.000 2.000 2.000 2.000 2.000 1.993 1.961 1.917 1.867 1.812 1.753 1.692 1.629 1.565 1.502 0.439 0.377 0.317 0.259 0.203 0.153 0.107 0.067 0.034 0.007 0.000 0.000 0.000 0.000 0.000 0.000 0.000 0.000 0.000 0.000 0.000 0.000 0.000 0.000 0.000 0.000 0.000 0.000 0.000 0.000 0.000 0.000 0.000 0.000 0.000 0.000 0.000 0.000 0.000 0.008 0.027 0.053 0.083 0.116 0.154 0.192 0.234 0.277 0.320 0.363 1.405 1.443 1.480 1.509 1.530 1.539 1.537 1.525 1.506 1.481 1.450 1.416 1.380 0.341 0.301 0.260 0.229 0.210 0.200 0.200 0.211 0.228 0.249 0.283 0.328 0.378 0.429 1.480 1.534 1.591 1.648 1.703 1.753 1.800 1.843 1.881 1.917 2.008 2.279 2.637 3.054 3.516 4.012 4.536 5.083 5.644 6.214
6.076 5.465 4.859 4.265 3.692 3.145 1.635 1.172 0.773 0.469 0.352 0.295 0.240 0.187 0.136 0.091 0.064 0.044 0.028 0.013 0.008 0.022 0.052 0.089 0.133 0.181 0.233 0.289 0.348 0.408 1.470 1.532 1.595 1.657 1.718 1.777 1.834 1.886 1.932 1.971 1.995 2.000 2.000 2.000 2.000 2.000 2.000 2.000 2.000 2.000 2.000 2.000 2.000 2.000 2.000 2.000 2.000 2.000 2.000 2.000 2.000 2.000 2.000 2.000 2.000 2.000 2.000 2.000 2.000 2.000 2.000 2.000 1.993 1.963 1.917 1.866 1.809 1.750 1.688 1.626 1.562 1.499 0.436 0.374 0.315 0.258 0.203 0.153 0.107 0.069 0.034 0.007 0.000 0.000 0.000 0.000 0.000 0.000 0.000 0.000 0.000 0.000 0.000 0.000 0.000 0.000 0.000 0.000 0.000 0.000 0.000 0.000 0.000 0.000 0.000 0.000 0.000 0.000 0.000 0.000 0.001 0.013 0.035 0.064 0.097 0.133 0.173 0.214 0.258 0.303 0.349 1.395 1.441 1.485 1.525 1.558 1.581 1.589 1.585 1.573 1.552 1.524 1.490 1.452 1.412 1.369 0.326 0.280 0.240 0.213 0.197 0.190 0.193 0.205 0.225 0.253 0.296 0.344 0.394 0.451 1.511 1.570 1.628 1.682 1.732 1.780 1.824 1.864 1.900 1.991 2.265 2.627 3.047 3.514 4.012 4.536 5.083 5.644 6.214
6.066 5.451 4.844 4.248 3.671 3.123 1.611 1.147 0.747 0.443 0.324 0.267 0.211 0.157 0.106 0.062 0.038 0.024 0.012 0.004 0.006 0.025 0.057 0.095 0.139 0.190 0.243 0.298 0.357 0.418 1.480 1.543 1.606 1.668 1.729 1.788 1.843 1.895 1.942 1.980 1.998 2.000 2.000 2.000 2.000 2.000 2.000 2.000 2.000 2.000 2.000 2.000 2.000 2.000 2.000 2.000 2.000 2.000 2.000 2.000 2.000 2.000 2.000 2.000 2.000 2.000 2.000 2.000 2.000 2.000 2.000 2.000 1.993 1.961 1.916 1.863 1.806 1.747 1.686 1.624 1.560 1.497 0.434 0.371 0.312 0.255 0.202 0.153 0.107 0.067 0.034 0.007 0.000 0.000 0.000 0.000 0.000 0.000 0.000 0.000 0.000 0.000 0.000 0.000 0.000 0.000 0.000 0.000 0.000 0.000 0.000 0.000 0.000 0.000 0.000 0.000 0.000 0.000 0.000 0.000 0.003 0.018 0.042 0.073 0.110 0.148 0.189 0.232 0.277 0.326 0.375 1.425 1.474 1.522 1.567 1.607 1.632 1.636 1.633 1.621 1.598 1.566 1.528 1.486 1.442 1.396 0.347 0.299 0.252 0.216 0.193 0.181 0.179 0.185 0.202 0.225 0.265 0.314 0.371 0.432 0.492 1.551 1.608 1.663 1.715 1.764 1.808 1.849 1.887 1.978 2.252 2.617 3.041 3.508 4.011 4.536 5.083 5.644 6.214
6.058 5.440 4.829 4.232 3.653 3.102 1.588 1.123 0.722 0.417 0.299 0.241 0.184 0.130 0.079 0.038 0.019 0.009 0.002 0.000 0.006 0.028 0.061 0.101 0.146 0.196 0.251 0.309 0.368 0.429 1.491 1.553 1.616 1.678 1.738 1.797 1.853 1.905 1.950 1.986 2.000 2.000 2.000 2.000 2.000 2.000 2.000 2.000 2.000 2.000 2.000 2.000 2.000 2.000 2.000 2.000 2.000 2.000 2.000 2.000 2.000 2.000 2.000 2.000 2.000 2.000 2.000 2.000 2.000 2.000 2.000 2.000 1.991 1.956 1.912 1.860 1.805 1.747 1.686 1.624 1.560 1.497 0.434 0.371 0.310 0.252 0.199 0.151 0.106 0.064 0.031 0.007 0.000 0.000 0.000 0.000 0.000 0.000 0.000 0.000 0.000 0.000 0.000 0.000 0.000 0.000 0.000 0.000 0.000 0.000 0.000 0.000 0.000 0.000 0.000 0.000 0.000 0.000 0.000 0.000 0.004 0.022 0.049 0.083 0.120 0.160 0.202 0.249 0.296 0.346 1.398 1.450 1.502 1.555 1.605 1.651 1.679 1.684 1.680 1.668 1.642 1.606 1.562 1.516 1.468 1.417 0.365 0.314 0.264 0.218 0.188 0.171 0.163 0.165 0.177 0.198 0.238 0.292 0.352 0.414 0.474 1.534 1.591 1.646 1.699 1.748 1.795 1.837 1.876 1.968 2.243 2.608 3.034 3.503 4.009 4.536 5.083 5.644 6.214
6.052 5.432 4.818 4.217 3.637 3.084 1.568 1.100 0.699 0.393 0.274 0.216 0.159 0.105 0.055 0.018 0.004 0.001 0.000 0.000 0.007 0.031 0.064 0.106 0.153 0.204 0.260 0.319 0.380 0.442 1.504 1.566 1.628 1.689 1.748 1.807 1.861 1.912 1.956 1.991 2.000 2.000 2.000 2.000 2.000 2.000 2.000 2.000 2.000 2.000 2.000 2.000 2.000 2.000 2.000 2.000 2.000 2.000 2.000 2.000 2.000 2.000 2.000 2.000 2.000 2.000 2.000 2.000 2.000 2.000 2.000 2.000 1.986 1.950 1.907 1.859 1.805 1.747 1.686 1.624 1.560 1.497 0.434 0.371 0.310 0.252 0.197 0.146 0.101 0.061 0.028 0.006 0.000 0.000 0.000 0.000 0.000 0.000 0.000 0.000 0.000 0.000 0.000 0.000 0.000 0.000 0.000 0.000 0.000 0.000 0.000 0.000 0.000 0.000 0.000 0.000 0.000 0.000 0.000 0.000 0.006 0.025 0.055 0.089 0.127 0.170 0.214 0.261 0.311 0.362 1.415 1.470 1.525 1.581 1.636 1.689 1.723 1.730 1.727 1.713 1.684 1.642 1.593 1.542 1.489 1.434 0.379 0.325 0.272 0.222 0.182 0.158 0.145 0.142 0.151 0.172 0.215 0.275 0.336 0.398 0.458 0.518 1.576 1.633 1.686 1.736 1.783 1.827 1.866 1.960 2.236 2.601 3.027 3.499 4.005 4.536 5.083 5.644 6.214
6.047 5.426 4.810 4.206 3.623 3.069 1.551 1.082 0.678 0.371 0.251 0.192 0.135 0.082 0.038 0.007 0.000 0.000 0.000 0.000 0.007 0.034 0.067 0.111 0.161 0.214 0.270 0.329 0.389 0.451 1.514 1.577 1.639 1.700 1.759 1.815 1.868 1.918 1.961 1.993 2.000 2.000 2.000 2.000 2.000 2.000 2.000 2.000 2.000 2.000 2.000 2.000 2.000 2.000 2.000 2.000 2.000 2.000 2.000 2.000 2.000 2.000 2.000 2.000 2.000 2.000 2.000 2.000 2.000 2.000 2.000 1.998 1.980 1.945 1.904 1.855 1.802 1.746 1.686 1.624 1.560 1.497 0.434 0.371 0.310 0.251 0.194 0.141 0.095 0.057 0.025 0.006 0.000 0.000 0.000 0.000 0.000 0.000 0.000 0.000 0.000 0.000 0.000 0.000 0.000 0.000 0.000 0.000 0.000 0.000 0.000 0.000 0.000 0.000 0.000 0.000 0.000 0.000 0.000 0.000 0.006 0.028 0.059 0.093 0.133 0.176 0.222 0.270 0.320 0.373 1.427 1.483 1.540 1.599 1.657 1.715 1.757 1.770 1.769 1.754 1.720 1.670 1.616 1.559 1.502 1.445 0.387 0.331 0.278 0.227 0.179 0.145 0.127 0.119 0.125 0.150 0.198 0.259 0.321 0.383 0.445 0.506 0.565 1.621 1.675 1.726 1.775 1.819 1.858 1.954 2.231 2.597 3.023 3.495 4.003 4.535 5.083 5.644 6.214
6.045 5.421 4.803 4.199 3.614 3.056 1.537 1.066 0.662 0.354 0.233 0.174 0.119 0.072 0.034 0.007 0.000 0.000 0.000 0.000 0.007 0.034 0.073 0.117 0.167 0.222 0.279 0.338 0.399 0.461 1.524 1.587 1.649 1.710 1.768 1.824 1.876 1.923 1.964 1.993 2.000 2.000 2.000 2.000 2.000 2.000 2.000 2.000 2.000 2.000 2.000 2.000 2.000 2.000 2.000 2.000 2.000 2.000 2.000 2.000 2.000 2.000 2.000 2.000 2.000 2.000 2.000 2.000 2.000 2.000 2.000 1.995 1.975 1.942 1.900 1.852 1.799 1.743 1.683 1.622 1.559 1.495 0.432 0.369 0.307 0.248 0.191 0.138 0.090 0.052 0.022 0.004 0.000 0.000 0.000 0.000 0.000 0.000 0.000 0.000 0.000 0.000 0.000 0.000 0.000 0.000 0.000 0.000 0.000 0.000 0.000 0.000 0.000 0.000 0.000 0.000 0.000 0.000 0.000 0.000 0.007 0.031 0.060 0.096 0.136 0.179 0.226 0.275 0.326 0.378 1.433 1.489 1.547 1.606 1.667 1.725 1.767 1.785 1.789 1.782 1.742 1.685 1.625 1.565 1.505 1.445 0.388 0.334 0.280 0.227 0.178 0.134 0.109 0.098 0.105 0.133 0.186 0.248 0.311 0.373 0.436 0.496 0.555 0.613 0.667 1.719 1.768 1.813 1.853 1.949 2.227 2.593 3.021 3.493 4.001 4.534 5.083 5.644 6.214
6.045 5.420 4.801 4.194 3.608 3.050 1.529 1.057 0.652 0.343 0.224 0.168 0.118 0.072 0.034 0.007 0.000 0.000 0.000 0.000 0.007 0.036 0.077 0.123 0.174 0.228 0.286 0.347 0.408 0.471 1.533 1.596 1.658 1.719 1.778 1.833 1.883 1.927 1.966 1.993 2.000 2.000 2.000 2.000 2.000 2.000 2.000 2.000 2.000 2.000 2.000 2.000 2.000 2.000 2.000 2.000 2.000 2.000 2.000 2.000 2.000 2.000 2.000 2.000 2.000 2.000 2.000 2.000 2.000 2.000 2.000 1.991 1.972 1.939 1.897 1.849 1.796 1.739 1.680 1.618 1.556 0.492 0.429 0.366 0.304 0.245 0.188 0.135 0.087 0.046 0.019 0.003 0.000 0.000 0.000 0.000 0.000 0.000 0.000 0.000 0.000 0.000 0.000 0.000 0.000 0.000 0.000 0.000 0.000 0.000 0.000 0.000 0.000 0.000 0.000 0.000 0.000 0.000 0.000 0.000 0.007 0.031 0.060 0.096 0.136 0.179 0.226 0.275 0.326 0.378 1.433 1.489 1.546 1.604 1.661 1.713 1.745 1.763 1.773 1.772 1.732 1.675 1.616 1.557 1.499 0.441 0.384 0.329 0.276 0.224 0.174 0.128 0.093 0.081 0.089 0.121 0.176 0.238 0.301 0.364 0.426 0.488 0.548 0.606 0.662 0.715 1.764 1.808 1.850 1.946 2.224 2.592 3.020 3.491 4.000 4.533 5.083 5.644 6.214
6.045 5.420 4.801 4.194 3.607 3.048 1.526 1.054 0.649 0.342 0.224 0.168 0.118 0.072 0.034 0.007 0.000 0.000 0.000 0.000 0.007 0.039 0.081 0.129 0.180 0.235 0.292 0.352 0.413 0.476 1.540 1.603 1.666 1.727 1.784 1.839 1.889 1.933 1.966 1.993 2.000 2.000 2.000 2.000 2.000 2.000 2.000 2.000 2.000 2.000 2.000 2.000 2.000 2.000 2.000 2.000 2.000 2.000 2.000 2.000 2.000 2.000 2.000 2.000 2.000 2.000 2.000 2.000 2.000 2.000 1.999 1.988 1.968 1.936 1.894 1.846 1.793 1.736 1.677 1.615 1.552 0.489 0.425 0.363 0.301 0.242 0.185 0.132 0.084 0.042 0.014 0.001 0.000 0.000 0.000 0.000 0.000 0.000 0.000 0.000 0.000 0.000 0.000 0.000 0.000 0.000 0.000 0.000 0.000 0.000 0.000 0.000 0.000 0.000 0.000 0.000 0.000 0.000 0.000 0.000 0.006 0.028 0.059 0.093 0.133 0.176 0.222 0.270 0.320 0.373 1.427 1.481 1.536 1.591 1.644 1.687 1.713 1.729 1.735 1.726 1.696 1.648 1.595 1.540 1.484 0.428 0.373 0.319 0.266 0.216 0.168 0.123 0.083 0.070 0.080 0.113 0.168 0.230 0.293 0.357 0.420 0.482 0.543 0.603 0.659 0.712 1.762 1.807 1.848 1.946 2.223 2.592 3.020 3.491 4.000 4.533 5.083 5.644 6.214
6.045 5.420 4.801 4.194 3.607 3.048 1.526 1.054 0.649 0.342 0.224 0.168 0.118 0.072 0.034 0.007 0.000 0.000 0.000 0.000 0.009 0.042 0.084 0.132 0.184 0.239 0.296 0.355 0.417 0.479 1.543 1.606 1.669 1.731 1.790 1.845 1.894 1.936 1.969 1.993 2.000 2.000 2.000 2.000 2.000 2.000 2.000 2.000 2.000 2.000 2.000 2.000 2.000 2.000 2.000 2.000 2.000 2.000 2.000 2.000 2.000 2.000 2.000 2.000 2.000 2.000 2.000 2.000 2.000 2.000 1.998 1.987 1.965 1.933 1.891 1.843 1.790 1.733 1.674 1.612 1.549 0.486 0.422 0.359 0.298 0.238 0.182 0.129 0.081 0.039 0.010 0.000 0.000 0.000 0.000 0.000 0.000 0.000 0.000 0.000 0.000 0.000 0.000 0.000 0.000 0.000 0.000 0.000 0.000 0.000 0.000 0.000 0.000 0.000 0.000 0.000 0.000 0.000 0.000 0.000 0.006 0.025 0.055 0.089 0.127 0.170 0.214 0.261 0.311 0.362 1.413 1.464 1.517 1.568 1.616 1.650 1.671 1.684 1.686 1.677 1.651 1.611 1.564 1.513 1.461 0.409 0.356 0.304 0.253 0.205 0.160 0.116 0.081 0.066 0.075 0.109 0.164 0.227 0.290 0.354 0.417 0.479 0.540 0.599 0.656 1.711 1.762 1.808 1.850 1.946 2.224 2.593 3.021 3.493 4.001 4.534 5.083 5.644 6.214
6.045 5.420 4.801 4.194 3.607 3.048 1.526 1.054 0.649 0.342 0.224 0.168 0.118 0.072 0.034 0.007 0.000 0.000 0.000 0.000 0.012 0.045 0.087 0.133 0.184 0.239 0.298 0.358 0.419 0.481 1.545 1.608 1.672 1.734 1.792 1.848 1.897 1.939 1.972 1.994 2.000 2.000 2.000 2.000 2.000 2.000 2.000 2.000 2.000 2.000 2.000 2.000 2.000 2.000 2.000 2.000 2.000 2.000 2.000 2.000 2.000 2.000 2.000 2.000 2.000 2.000 2.000 2.000 2.000 2.000 1.997 1.987 1.962 1.929 1.888 1.840 1.787 1.730 1.670 1.609 0.546 0.482 0.419 0.356 0.295 0.235 0.178 0.125 0.077 0.036 0.006 0.000 0.000 0.000 0.000 0.000 0.000 0.000 0.000 0.000 0.000 0.000 0.000 0.000 0.000 0.000 0.000 0.000 0.000 0.000 0.000 0.000 0.000 0.000 0.000 0.000 0.000 0.000 0.000 0.000 0.004 0.022 0.049 0.083 0.120 0.160 0.202 0.249 0.296 0.344 1.393 1.442 1.491 1.537 1.579 1.608 1.624 1.635 1.635 1.626 1.603 1.570 1.528 1.483 1.434 0.385 0.336 0.287 0.239 0.191 0.147 0.106 0.080 0.069 0.076 0.111 0.165 0.228 0.292 0.355 0.418 0.479 0.540 1.599 1.656 1.711 1.763 1.811 1.853 1.949 2.227 2.596 3.023 3.495 4.003 4.535 5.083 5.644 6.214
6.045 5.420 4.801 4.194 3.607 3.048 1.526 1.054 0.649 0.342 0.224 0.168 0.118 0.072 0.034 0.007 0.000 0.000 0.000 0.001 0.016 0.048 0.088 0.133 0.184 0.239 0.296 0.355 0.416 0.478 1.541 1.603 1.666 1.728 1.789 1.847 1.898 1.942 1.975 1.994 2.000 2.000 2.000 2.000 2.000 2.000 2.000 2.000 2.000 2.000 2.000 2.000 2.000 2.000 2.000 2.000 2.000 2.000 2.000 2.000 2.000 2.000 2.000 2.000 2.000 2.000 2.000 2.000 2.000 2.000 1.997 1.987 1.960 1.926 1.884 1.836 1.783 1.727 1.667 1.606 0.543 0.479 0.416 0.353 0.291 0.232 0.175 0.122 0.074 0.032 0.004 0.000 0.000 0.000 0.000 0.000 0.000 0.000 0.000 0.000 0.000 0.000 0.000 0.000 0.000 0.000 0.000 0.000 0.000 0.000 0.000 0.000 0.000 0.000 0.000 0.000 0.000 0.000 0.000 0.000 0.003 0.018 0.042 0.073 0.110 0.148 0.189 0.232 0.277 0.322 0.368 1.415 1.458 1.501 1.537 1.563 1.576 1.584 1.584 1.575 1.553 1.524 1.488 1.447 1.403 0.357 0.311 0.265 0.220 0.175 0.133 0.098 0.078 0.075 0.087 0.124 0.174 0.234 0.296 0.360 0.423 0.485 1.545 1.603 1.660 1.715 1.766 1.814 1.857 1.954 2.232 2.600 3.027 3.499 4.005 4.536 5.083 5.644 6.214
6.045 5.420 4.801 4.194 3.607 3.048 1.526 1.054 0.649 0.342 0.224 0.168 0.118 0.072 0.034 0.007 0.000 0.000 0.000 0.003 0.019 0.050 0.088 0.133 0.183 0.236 0.292 0.349 0.408 0.469 1.531 1.594 1.657 1.719 1.780 1.838 1.894 1.943 1.978 1.996 2.000 2.000 2.000 2.000 2.000 2.000 2.000 2.000 2.000 2.000 2.000 2.000 2.000 2.000 2.000 2.000 2.000 2.000 2.000 2.000 2.000 2.000 2.000 2.000 2.000 2.000 2.000 2.000 2.000 2.000 1.998 1.987 1.960 1.923 1.881 1.833 1.780 1.723 1.663 1.601 1.538 0.475 0.412 0.350 0.288 0.229 0.172 0.119 0.071 0.029 0.004 0.000 0.000 0.000 0.000 0.000 0.000 0.000 0.000 0.000 0.000 0.000 0.000 0.000 0.000 0.000 0.000 0.000 0.000 0.000 0.000 0.000 0.000 0.000 0.000 0.000 0.000 0.000 0.000 0.000 0.001 0.013 0.035 0.064 0.097 0.133 0.173 0.214 0.256 0.298 0.341 1.384 1.423 1.461 1.492 1.516 1.528 1.533 1.533 1.524 1.504 1.478 1.446 1.408 0.369 0.326 0.283 0.241 0.198 0.157 0.117 0.089 0.080 0.085 0.105 0.142 0.189 0.245 0.306 0.369 0.431 0.493 1.554 1.612 1.668 1.721 1.772 1.819 1.864 1.961 2.239 2.606 3.034 3.503 4.009 4.536 5.083 5.644 6.214
6.045 5.420 4.801 4.194 3.607 3.048 1.526 1.054 0.649 0.342 0.224 0.168 0.118 0.072 0.034 0.007 0.000 0.000 0.000 0.004 0.021 0.050 0.088 0.131 0.180 0.231 0.284 0.340 0.399 1.459 1.522 1.584 1.647 1.709 1.770 1.829 1.885 1.937 1.979 1.997 2.000 2.000 2.000 2.000 2.000 2.000 2.000 2.000 2.000 2.000 2.000 2.000 2.000 2.000 2.000 2.000 2.000 2.000 2.000 2.000 2.000 2.000 2.000 2.000 2.000 2.000 2.000 2.000 2.000 2.000 1.999 1.987 1.960 1.922 1.878 1.829 1.775 1.717 1.657 1.595 1.532 0.468 0.405 0.343 0.283 0.225 0.169 0.116 0.068 0.028 0.006 0.000 0.000 0.000 0.000 0.000 0.000 0.000 0.000 0.000 0.000 0.000 0.000 0.000 0.000 0.000 0.000 0.000 0.000 0.000 0.000 0.000 0.000 0.000 0.000 0.000 0.000 0.000 0.000 0.000 0.000 0.008 0.027 0.053 0.083 0.116 0.154 0.192 0.231 0.271 0.310 0.349 1.385 1.419 1.447 1.468 1.480 1.484 1.482 1.473 1.456 1.432 1.403 1.369 0.333 0.295 0.255 0.215 0.176 0.138 0.102 0.084 0.084 0.097 0.126 0.167 0.212 0.261 0.319 0.382 0.444 1.505 1.564 1.622 1.678 1.731 1.781 1.827 1.872 1.971 2.247 2.615 3.041 3.508 4.011 4.536 5.083 5.644 6.214
6.045 5.420 4.801 4.194 3.607 3.048 1.526 1.054 0.649 0.342 0.224 0.168 0.118 0.072 0.034 0.007 0.000 0.000 0.000 0.006 0.022 0.050 0.086 0.128 0.174 0.223 0.274 0.330 0.389 1.450 1.512 1.574 1.636 1.698 1.759 1.818 1.875 1.927 1.973 1.997 2.000 2.000 2.000 2.000 2.000 2.000 2.000 2.000 2.000 2.000 2.000 2.000 2.000 2.000 2.000 2.000 2.000 2.000 2.000 2.000 2.000 2.000 2.000 2.000 2.000 2.000 2.000 2.000 2.000 2.000 2.000 1.988 1.960 1.921 1.875 1.823 1.768 1.710 1.649 1.587 1.524 0.461 0.399 0.337 0.277 0.219 0.164 0.113 0.066 0.029 0.006 0.000 0.000 0.000 0.000 0.000 0.000 0.000 0.000 0.000 0.000 0.000 0.000 0.000 0.000 0.000 0.000 0.000 0.000 0.000 0.000 0.000 0.000 0.000 0.000 0.000 0.000 0.000 0.000 0.000 0.000 0.004 0.019 0.042 0.069 0.100 0.134 0.169 0.205 0.241 0.278 0.313 0.345 1.376 1.401 1.420 1.432 1.436 1.432 1.422 1.408 1.386 1.360 0.330 0.297 0.262 0.225 0.189 0.153 0.119 0.091 0.086 0.095 0.117 0.152 0.196 0.241 0.289 0.339 0.397 0.458 1.519 1.578 1.635 1.690 1.744 1.793 1.839 1.882 1.982 2.260 2.626 3.047 3.514 4.012 4.536 5.083 5.644 6.214
6.045 5.420 4.801 4.194 3.607 3.048 1.526 1.054 0.649 0.342 0.224 0.168 0.118 0.072 0.034 0.007 0.000 0.000 0.000 0.006 0.023 0.049 0.083 0.123 0.166 0.213 0.265 0.321 0.379 1.438 1.499 1.561 1.623 1.685 1.746 1.806 1.862 1.915 1.963 1.992 1.998 2.000 2.000 2.000 2.000 2.000 2.000 2.000 2.000 2.000 2.000 2.000 2.000 2.000 2.000 2.000 2.000 2.000 2.000 2.000 2.000 2.000 2.000 2.000 2.000 2.000 2.000 2.000 2.000 2.000 2.000 1.991 1.960 1.919 1.871 1.816 1.759 1.701 1.641 1.579 1.516 0.452 0.390 0.329 0.270 0.212 0.158 0.109 0.066 0.031 0.007 0.000 0.000 0.000 0.000 0.000 0.000 0.000 0.000 0.000 0.000 0.000 0.000 0.000 0.000 0.000 0.000 0.000 0.000 0.000 0.000 0.000 0.000 0.000 0.000 0.000 0.000 0.000 0.000 0.000 0.000 0.001 0.012 0.031 0.055 0.082 0.113 0.145 0.178 0.211 0.244 0.276 0.306 0.333 0.356 1.373 1.384 1.388 1.384 1.374 1.360 0.341 0.317 0.290 0.260 0.229 0.196 0.166 0.137 0.111 0.098 0.104 0.120 0.147 0.188 0.235 0.280 0.326 0.374 0.424 1.478 1.537 1.596 1.653 1.707 1.759 1.809 1.854 1.897 1.997 2.274 2.637 3.054 3.516 4.012 4.536 5.083 5.644 6.214
6.045 5.420 4.801 4.194 3.607 3.048 1.526 1.054 0.649 0.342 0.224 0.168 0.118 0.072 0.034 0.007 0.000 0.000 0.000 0.006 0.022 0.047 0.080 0.117 0.157 0.204 0.255 0.310 0.366 1.425 1.486 1.548 1.611 1.673 1.734 1.793 1.850 1.903 1.951 1.982 1.995 1.999 2.000 2.000 2.000 2.000 2.000 2.000 2.000 2.000 2.000 2.000 2.000 2.000 2.000 2.000 2.000 2.000 2.000 2.000 2.000 2.000 2.000 2.000 2.000 2.000 2.000 2.000 2.000 2.000 2.000 1.993 1.960 1.915 1.865 1.812 1.755 1.696 1.634 1.572 1.509 0.446 0.383 0.321 0.261 0.206 0.154 0.106 0.066 0.034 0.007 0.000 0.000 0.000 0.000 0.000 0.000 0.000 0.000 0.000 0.000 0.000 0.000 0.000 0.000 0.000 0.000 0.000 0.000 0.000 0.000 0.000 0.000 0.000 0.000 0.000 0.000 0.000 0.000 0.000 0.000 0.000 0.004 0.020 0.041 0.065 0.092 0.121 0.151 0.181 0.211 0.240 0.266 0.291 0.312 0.326 0.337 0.340 0.337 0.329 0.315 0.297 0.275 0.250 0.224 0.200 0.176 0.154 0.133 0.117 0.117 0.129 0.153 0.185 0.229 0.275 0.323 0.369 0.416 0.463 1.513 1.564 1.619 1.675 1.730 1.781 1.830 1.875 1.916 2.015 2.291 2.646 3.058 3.516 4.012 4.536 5.083 5.644 6.214
6.045 5.420 4.801 4.194 3.607 3.048 1.526 1.054 0.649 0.342 0.224 0.168 0.118 0.072 0.034 0.007 0.000 0.000 0.000 0.004 0.021 0.044 0.074 0.108 0.147 0.194 0.244 0.297 0.353 1.413 1.474 1.536 1.598 1.660 1.721 1.780 1.837 1.890 1.937 1.968 1.987 1.997 2.000 2.000 2.000 2.000 2.000 2.000 2.000 2.000 2.000 2.000 2.000 2.000 2.000 2.000 2.000 2.000 2.000 2.000 2.000 2.000 2.000 2.000 2.000 2.000 2.000 2.000 2.000 2.000 2.000 1.993 1.958 1.911 1.862 1.809 1.752 1.693 1.631 1.568 1.505 0.441 0.378 0.317 0.257 0.201 0.149 0.104 0.066 0.034 0.007 0.000 0.000 0.000 0.000 0.000 0.000 0.000 0.000 0.000 0.000 0.000 0.000 0.000 0.000 0.000 0.000 0.000 0.000 0.000 0.000 0.000 0.000 0.000 0.000 0.000 0.000 0.000 0.000 0.000 0.000 0.000 0.001 0.010 0.027 0.047 0.072 0.097 0.124 0.151 0.178 0.204 0.227 0.249 0.267 0.281 0.289 0.293 0.291 0.284 0.271 0.256 0.236 0.215 0.199 0.183 0.167 0.152 0.138 0.133 0.140 0.160 0.188 0.226 0.272 0.318 0.365 0.412 0.459 0.505 1.553 1.601 1.651 1.703 1.757 1.808 1.854 1.899 1.939 2.035 2.304 2.649 3.058 3.516 4.012 4.536 5.083 5.644 6.214
6.045 5.420 4.801 4.194 3.607 3.048 1.526 1.054 0.649 0.342 0.224 0.168 0.118 0.072 0.034 0.007 0.000 0.000 0.000 0.003 0.018 0.041 0.068 0.099 0.138 0.183 0.231 0.284 0.341 0.400 1.461 1.523 1.585 1.647 1.708 1.767 1.824 1.877 1.922 1.953 1.977 1.992 2.000 2.000 2.000 2.000 2.000 2.000 2.000 2.000 2.000 2.000 2.000 2.000 2.000 2.000 2.000 2.000 2.000 2.000 2.000 2.000 2.000 2.000 2.000 2.000 2.000 2.000 2.000 2.000 2.000 1.989 1.955 1.911 1.860 1.806 1.749 1.689 1.628 1.565 1.502 0.438 0.375 0.314 0.254 0.198 0.146 0.102 0.064 0.031 0.007 0.000 0.000 0.000 0.000 0.000 0.000 0.000 0.000 0.000 0.000 0.000 0.000 0.000 0.000 0.000 0.000 0.000 0.000 0.000 0.000 0.000 0.000 0.000 0.000 0.000 0.000 0.000 0.000 0.000 0.000 0.000 0.000 0.002 0.014 0.031 0.052 0.074 0.097 0.121 0.145 0.169 0.189 0.208 0.224 0.236 0.243 0.246 0.246 0.240 0.230 0.215 0.202 0.192 0.184 0.174 0.165 0.156 0.150 0.155 0.168 0.194 0.227 0.270 0.315 0.362 0.408 0.454 0.502 0.548 1.593 1.640 1.688 1.735 1.786 1.836 1.882 1.925 1.962 2.051 2.307 2.649 3.058 3.516 4.012 4.536 5.083 5.644 6.214
6.045 5.420 4.801 4.194 3.607 3.048 1.526 1.054 0.649 0.342 0.224 0.168 0.118 0.072 0.034 0.007 0.000 0.000 0.000 0.001 0.013 0.035 0.061 0.089 0.128 0.170 0.218 0.271 0.328 0.387 1.448 1.510 1.573 1.635 1.696 1.755 1.811 1.863 1.906 1.939 1.966 1.985 1.998 2.000 2.000 2.000 2.000 2.000 2.000 2.000 2.000 2.000 2.000 2.000 2.000 2.000 2.000 2.000 2.000 2.000 2.000 2.000 2.000 2.000 2.000 2.000 2.000 2.000 2.000 2.000 1.999 1.984 1.952 1.910 1.860 1.805 1.747 1.686 1.625 1.562 1.498 0.435 0.372 0.311 0.252 0.197 0.146 0.100 0.061 0.028 0.006 0.000 0.000 0.000 0.000 0.000 0.000 0.000 0.000 0.000 0.000 0.000 0.000 0.000 0.000 0.000 0.000 0.000 0.000 0.000 0.000 0.000 0.000 0.000 0.000 0.000 0.000 0.000 0.000 0.000 0.000 0.000 0.000 0.000 0.004 0.016 0.033 0.052 0.072 0.092 0.113 0.134 0.152 0.168 0.182 0.192 0.200 0.203 0.201 0.197 0.188 0.182 0.177 0.175 0.173 0.170 0.167 0.164 0.166 0.179 0.198 0.230 0.270 0.315 0.360 0.405 0.451 0.497 0.542 1.589 1.634 1.678 1.723 1.769 1.815 1.863 1.909 1.947 1.977 2.057 2.307 2.649 3.058 3.516 4.012 4.536 5.083 5.644 6.214
6.045 5.420 4.801 4.194 3.607 3.048 1.526 1.054 0.649 0.342 0.224 0.168 0.118 0.072 0.034 0.007 0.000 0.000 0.000 0.000 0.008 0.027 0.052 0.080 0.116 0.157 0.206 0.259 0.315 0.374 0.435 1.497 1.559 1.620 1.681 1.741 1.796 1.847 1.890 1.925 1.955 1.977 1.995 2.000 2.000 2.000 2.000 2.000 2.000 2.000 2.000 2.000 2.000 2.000 2.000 2.000 2.000 2.000 2.000 2.000 2.000 2.000 2.000 2.000 2.000 2.000 2.000 2.000 2.000 2.000 1.997 1.981 1.948 1.907 1.859 1.805 1.747 1.685 1.622 1.559 1.495 0.433 0.371 0.310 0.252 0.197 0.145 0.096 0.056 0.025 0.006 0.000 0.000 0.000 0.000 0.000 0.000 0.000 0.000 0.000 0.000 0.000 0.000 0.000 0.000 0.000 0.000 0.000 0.000 0.000 0.000 0.000 0.000 0.000 0.000 0.000 0.000 0.000 0.000 0.000 0.000 0.000 0.000 0.000 0.000 0.005 0.016 0.031 0.049 0.067 0.086 0.105 0.122 0.135 0.147 0.156 0.161 0.162 0.160 0.155 0.153 0.154 0.158 0.164 0.167 0.170 0.173 0.176 0.188 0.207 0.233 0.271 0.315 0.360 0.405 0.450 0.494 0.539 1.583 1.628 1.671 1.714 1.756 1.799 1.842 1.885 1.928 1.961 1.987 2.059 2.307 2.649 3.058 3.516 4.012 4.536 5.083 5.644 6.214
6.045 5.420 4.801 4.194 3.607 3.048 1.526 1.054 0.649 0.342 0.224 0.168 0.118 0.072 0.034 0.007 0.000 0.000 0.000 0.000 0.004 0.019 0.040 0.068 0.103 0.145 0.193 0.246 0.303 0.361 0.421 0.481 0.543 1.604 1.665 1.723 1.777 1.828 1.872 1.912 1.944 1.970 1.990 2.000 2.000 2.000 2.000 2.000 2.000 2.000 2.000 2.000 2.000 2.000 2.000 2.000 2.000 2.000 2.000 2.000 2.000 2.000 2.000 2.000 2.000 2.000 2.000 2.000 2.000 2.000 1.994 1.978 1.945 1.904 1.855 1.800 1.742 1.682 1.619 1.556 1.492 0.429 0.368 0.308 0.251 0.194 0.141 0.093 0.052 0.022 0.004 0.000 0.000 0.000 0.000 0.000 0.000 0.000 0.000 0.000 0.000 0.000 0.000 0.000 0.000 0.000 0.000 0.000 0.000 0.000 0.000 0.000 0.000 0.000 0.000 0.000 0.000 0.000 0.000 0.000 0.000 0.000 0.000 0.000 0.000 0.001 0.008 0.022 0.040 0.058 0.077 0.094 0.109 0.121 0.130 0.135 0.136 0.135 0.130 0.124 0.126 0.133 0.144 0.154 0.163 0.173 0.182 0.192 0.212 0.240 0.274 0.315 0.360 0.404 0.449 0.494 0.538 0.581 1.623 1.665 1.707 1.747 1.787 1.826 1.865 1.904 1.944 1.974 1.993 2.060 2.307 2.649 3.058 3.516 4.012 4.536 5.083 5.644 6.214
6.045 5.420 4.801 4.194 3.607 3.048 1.526 1.054 0.649 0.342 0.224 0.168 0.118 0.072 0.034 0.007 0.000 0.000 0.000 0.000 0.001 0.012 0.030 0.055 0.088 0.131 0.180 0.233 0.288 0.345 0.405 0.466 0.527 1.587 1.647 1.704 1.758 1.809 1.854 1.896 1.932 1.962 1.986 1.999 2.000 2.000 2.000 2.000 2.000 2.000 2.000 2.000 2.000 2.000 2.000 2.000 2.000 2.000 2.000 2.000 2.000 2.000 2.000 2.000 2.000 2.000 2.000 2.000 2.000 1.999 1.993 1.975 1.942 1.899 1.849 1.794 1.735 1.674 1.612 1.549 0.487 0.424 0.362 0.302 0.244 0.190 0.138 0.090 0.048 0.018 0.003 0.000 0.000 0.000 0.000 0.000 0.000 0.000 0.000 0.000 0.000 0.000 0.000 0.000 0.000 0.000 0.000 0.000 0.000 0.000 0.000 0.000 0.000 0.000 0.000 0.000 0.000 0.000 0.000 0.000 0.000 0.000 0.000 0.001 0.004 0.012 0.019 0.029 0.045 0.062 0.078 0.093 0.106 0.116 0.122 0.125 0.125 0.120 0.113 0.112 0.116 0.123 0.135 0.149 0.164 0.180 0.196 0.214 0.242 0.278 0.318 0.360 0.404 0.449 0.494 0.539 0.581 1.623 1.665 1.703 1.742 1.780 1.816 1.853 1.889 1.923 1.957 1.984 1.997 2.060 2.307 2.649 3.058 3.516 4.012 4.536 5.083 5.644 6.214
6.045 5.420 4.801 4.194 3.607 3.048 1.526 1.054 0.649 0.342 0.224 0.168 0.118 0.072 0.034 0.007 0.000 0.000 0.000 0.000 0.000 0.004 0.019 0.040 0.072 0.115 0.164 0.216 0.271 0.328 0.387 0.447 0.508 1.568 1.628 1.685 1.739 1.789 1.837 1.880 1.919 1.952 1.981 1.997 2.000 2.000 2.000 2.000 2.000 2.000 2.000 2.000 2.000 2.000 2.000 2.000 2.000 2.000 2.000 2.000 2.000 2.000 2.000 2.000 2.000 2.000 2.000 2.000 2.000 1.999 1.991 1.972 1.937 1.892 1.840 1.784 1.726 1.665 1.603 1.540 0.477 0.415 0.354 0.295 0.238 0.183 0.133 0.087 0.045 0.014 0.001 0.000 0.000 0.000 0.000 0.000 0.000 0.000 0.000 0.000 0.000 0.000 0.000 0.000 0.000 0.000 0.000 0.000 0.000 0.000 0.000 0.000 0.000 0.000 0.000 0.000 0.000 0.000 0.000 0.000 0.000 0.000 0.002 0.009 0.019 0.030 0.040 0.052 0.063 0.075 0.089 0.102 0.112 0.120 0.125 0.125 0.122 0.115 0.109 0.111 0.117 0.126 0.137 0.151 0.170 0.192 0.214 0.241 0.278 0.319 0.362 0.404 0.449 0.494 0.539 0.583 0.624 1.665 1.703 1.740 1.776 1.811 1.845 1.877 1.909 1.940 1.969 1.992 1.999 2.060 2.307 2.649 3.058 3.516 4.012 4.536 5.083 5.644 6.214
6.045 5.420 4.801 4.194 3.607 3.048 1.526 1.054 0.649 0.342 0.224 0.168 0.118 0.072 0.034 0.007 0.000 0.000 0.000 0.000 0.000 0.001 0.009 0.026 0.056 0.099 0.147 0.197 0.251 0.309 0.368 0.428 0.489 0.549 1.609 1.666 1.720 1.772 1.821 1.865 1.906 1.943 1.976 1.996 2.000 2.000 2.000 2.000 2.000 2.000 2.000 2.000 2.000 2.000 2.000 2.000 2.000 2.000 2.000 2.000 2.000 2.000 2.000 2.000 2.000 2.000 2.000 2.000 2.000 1.998 1.990 1.967 1.929 1.882 1.830 1.774 1.715 1.654 1.592 0.529 0.467 0.405 0.344 0.286 0.230 0.177 0.127 0.082 0.042 0.011 0.000 0.000 0.000 0.000 0.000 0.000 0.000 0.000 0.000 0.000 0.000 0.000 0.000 0.000 0.000 0.000 0.000 0.000 0.000 0.000 0.000 0.000 0.000 0.000 0.000 0.000 0.000 0.000 0.000 0.000 0.000 0.004 0.012 0.024 0.037 0.052 0.066 0.080 0.092 0.102 0.112 0.122 0.130 0.135 0.135 0.133 0.126 0.119 0.117 0.121 0.128 0.137 0.150 0.165 0.185 0.212 0.243 0.277 0.316 0.360 0.404 1.449 1.493 1.539 1.583 1.626 0.668 1.706 1.742 1.776 1.810 1.842 1.872 1.901 1.929 1.955 1.980 1.998 2.000 2.060 2.307 2.649 3.058 3.516 4.012 4.536 5.083 5.644 6.214
6.045 5.420 4.801 4.194 3.607 3.048 1.526 1.054 0.649 0.342 0.224 0.168 0.118 0.072 0.034 0.007 0.000 0.000 0.000 0.000 0.000 0.000 0.002 0.013 0.040 0.083 0.128 0.178 0.232 0.290 0.349 0.409 0.470 0.530 1.589 1.647 1.702 1.756 1.806 1.852 1.895 1.934 1.970 1.994 2.000 2.000 2.000 2.000 2.000 2.000 2.000 2.000 2.000 2.000 2.000 2.000 2.000 2.000 2.000 2.000 2.000 2.000 2.000 2.000 2.000 2.000 2.000 2.000 2.000 1.999 1.990 1.959 1.919 1.871 1.817 1.760 1.700 1.640 1.578 1.516 0.455 0.394 0.334 0.276 0.220 0.169 0.120 0.076 0.038 0.008 0.000 0.000 0.000 0.000 0.000 0.000 0.000 0.000 0.000 0.000 0.000 0.000 0.000 0.000 0.000 0.000 0.000 0.000 0.000 0.000 0.000 0.000 0.000 0.000 0.000 0.000 0.000 0.000 0.000 0.000 0.004 0.013 0.027 0.043 0.060 0.078 0.095 0.112 0.126 0.138 0.148 0.155 0.160 0.161 0.158 0.153 0.144 0.136 0.139 0.145 0.154 0.165 0.180 0.197 0.217 0.243 0.275 0.311 0.353 1.398 1.445 1.492 1.538 1.583 1.628 1.669 1.709 1.745 1.780 1.811 1.842 1.870 1.896 1.922 1.946 1.969 1.991 2.000 2.000 2.060 2.307 2.649 3.058 3.516 4.012 4.536 5.083 5.644 6.214
6.045 5.420 4.801 4.194 3.607 3.048 1.526 1.054 0.649 0.342 0.224 0.168 0.118 0.072 0.034 0.007 0.000 0.000 0.000 0.000 0.000 0.000 0.000 0.004 0.024 0.065 0.109 0.159 0.213 0.271 0.330 0.390 0.451 0.511 1.570 1.629 1.686 1.740 1.791 1.839 1.884 1.927 1.964 1.991 2.000 2.000 2.000 2.000 2.000 2.000 2.000 2.000 2.000 2.000 2.000 2.000 2.000 2.000 2.000 2.000 2.000 2.000 2.000 2.000 2.000 2.000 2.000 2.000 2.000 1.999 1.986 1.948 1.904 1.854 1.799 1.742 1.683 1.623 1.562 1.501 0.440 0.380 0.322 0.265 0.211 0.159 0.112 0.069 0.033 0.006 0.000 0.000 0.000 0.000 0.000 0.000 0.000 0.000 0.000 0.000 0.000 0.000 0.000 0.000 0.000 0.000 0.000 0.000 0.000 0.000 0.000 0.000 0.000 0.000 0.000 0.000 0.000 0.000 0.000 0.002 0.012 0.027 0.046 0.065 0.086 0.107 0.127 0.145 0.161 0.177 0.188 0.197 0.199 0.199 0.197 0.189 0.179 0.175 0.179 0.188 0.199 0.211 0.226 0.243 0.261 0.281 0.307 0.342 1.387 1.433 1.483 1.532 1.581 1.628 1.672 1.713 1.751 1.785 1.816 1.845 1.872 1.896 1.919 1.942 1.963 1.983 1.998 2.000 2.000 2.060 2.307 2.649 3.058 3.516 4.012 4.536 5.083 5.644 6.214
6.045 5.420 4.801 4.194 3.607 3.048 1.526 1.054 0.649 0.342 0.224 0.168 0.118 0.072 0.034 0.007 0.000 0.000 0.000 0.000 0.000 0.000 0.000 0.000 0.013 0.047 0.090 0.140 0.194 0.251 0.311 0.371 0.432 0.492 1.552 1.612 1.669 1.724 1.778 1.828 1.877 1.921 1.957 1.988 2.000 2.000 2.000 2.000 2.000 2.000 2.000 2.000 2.000 2.000 2.000 2.000 2.000 2.000 2.000 2.000 2.000 2.000 2.000 2.000 2.000 2.000 2.000 2.000 2.000 1.999 1.976 1.933 1.884 1.833 1.779 1.722 1.663 1.603 1.543 1.483 0.423 0.364 0.307 0.252 0.199 0.149 0.103 0.063 0.027 0.006 0.000 0.000 0.000 0.000 0.000 0.000 0.000 0.000 0.000 0.000 0.000 0.000 0.000 0.000 0.000 0.000 0.000 0.000 0.000 0.000 0.000 0.000 0.000 0.000 0.000 0.000 0.000 0.000 0.001 0.009 0.024 0.045 0.068 0.091 0.115 0.139 0.162 0.182 0.201 0.217 0.230 0.238 0.243 0.243 0.240 0.235 0.225 0.224 0.229 0.239 0.249 0.260 0.276 0.292 0.310 0.328 0.350 1.375 1.418 1.467 1.518 1.570 1.621 1.671 1.717 1.758 1.793 1.825 1.853 1.877 1.901 1.922 1.942 1.961 1.979 1.993 2.000 2.000 2.000 2.060 2.307 2.649 3.058 3.516 4.012 4.536 5.083 5.644 6.214
6.045 5.420 4.801 4.194 3.607 3.048 1.526 1.054 0.649 0.342 0.224 0.168 0.118 0.072 0.034 0.007 0.000 0.000 0.000 0.000 0.000 0.000 0.000 0.000 0.006 0.032 0.074 0.123 0.177 0.234 0.293 0.352 0.412 0.473 1.533 1.593 1.651 1.709 1.764 1.818 1.870 1.915 1.952 1.984 1.999 2.000 2.000 2.000 2.000 2.000 2.000 2.000 2.000 2.000 2.000 2.000 2.000 2.000 2.000 2.000 2.000 2.000 2.000 2.000 2.000 2.000 2.000 2.000 2.000 1.990 1.958 1.911 1.860 1.808 1.754 1.698 1.642 1.584 1.526 1.468 0.411 0.353 0.296 0.240 0.188 0.138 0.093 0.054 0.023 0.006 0.000 0.000 0.000 0.000 0.000 0.000 0.000 0.000 0.000 0.000 0.000 0.000 0.000 0.000 0.000 0.000 0.000 0.000 0.000 0.000 0.000 0.000 0.000 0.000 0.000 0.000 0.000 0.000 0.004 0.021 0.041 0.065 0.091 0.117 0.144 0.171 0.197 0.221 0.243 0.261 0.275 0.283 0.287 0.289 0.288 0.283 0.275 0.276 0.282 0.291 0.301 0.312 0.327 0.342 0.359 0.376 0.397 1.417 1.449 1.496 1.548 1.602 1.657 1.710 1.759 1.802 1.836 1.864 1.889 1.909 1.929 1.946 1.963 1.978 1.990 1.997 2.000 2.000 2.000 2.060 2.307 2.649 3.058 3.516 4.012 4.536 5.083 5.644 6.214
6.045 5.420 4.801 4.194 3.607 3.048 1.526 1.054 0.649 0.342 0.224 0.168 0.118 0.072 0.034 0.007 0.000 0.000 0.000 0.000 0.000 0.000 0.000 0.000 0.004 0.024 0.060 0.107 0.161 0.216 0.274 0.333 0.393 0.454 1.515 1.576 1.636 1.694 1.752 1.808 1.860 1.907 1.948 1.981 1.997 2.000 2.000 2.000 2.000 2.000 2.000 2.000 2.000 2.000 2.000 2.000 2.000 2.000 2.000 2.000 2.000 2.000 2.000 2.000 2.000 2.000 2.000 1.999 1.990 1.966 1.931 1.883 1.833 1.780 1.729 1.678 1.626 1.574 1.520 1.463 0.406 0.350 0.295 0.239 0.185 0.134 0.087 0.047 0.021 0.004 0.000 0.000 0.000 0.000 0.000 0.000 0.000 0.000 0.000 0.000 0.000 0.000 0.000 0.000 0.000 0.000 0.000 0.000 0.000 0.000 0.000 0.000 0.000 0.000 0.000 0.000 0.000 0.001 0.014 0.034 0.058 0.086 0.115 0.144 0.174 0.205 0.233 0.260 0.284 0.305 0.320 0.330 0.336 0.339 0.339 0.333 0.327 0.329 0.335 0.343 0.354 0.365 0.377 0.392 0.408 0.425 1.444 1.465 1.489 1.527 1.576 1.631 1.687 1.743 1.797 1.843 1.876 1.901 1.921 1.938 1.953 1.967 1.978 1.988 1.995 1.999 2.000 2.000 2.000 2.060 2.307 2.649 3.058 3.516 4.012 4.536 5.083 5.644 6.214
6.045 5.420 4.801 4.194 3.607 3.048 1.526 1.054 0.649 0.342 0.224 0.168 0.118 0.072 0.034 0.007 0.000 0.000 0.000 0.000 0.000 0.000 0.000 0.000 0.003 0.019 0.054 0.098 0.146 0.199 0.256 0.316 0.376 0.438 0.500 1.561 1.623 1.684 1.743 1.799 1.851 1.899 1.943 1.978 1.996 2.000 2.000 2.000 2.000 2.000 2.000 2.000 2.000 2.000 2.000 2.000 2.000 2.000 2.000 2.000 2.000 2.000 2.000 2.000 2.000 1.999 1.996 1.985 1.965 1.935 1.899 1.853 1.805 1.759 1.712 1.666 1.619 1.568 1.516 0.464 0.410 0.354 0.299 0.245 0.191 0.140 0.093 0.053 0.022 0.003 0.000 0.000 0.000 0.000 0.000 0.000 0.000 0.000 0.000 0.000 0.000 0.000 0.000 0.000 0.000 0.000 0.000 0.000 0.000 0.000 0.000 0.000 0.000 0.000 0.000 0.000 0.000 0.005 0.025 0.048 0.076 0.107 0.139 0.171 0.205 0.238 0.270 0.299 0.327 0.350 1.366 1.379 1.387 1.391 1.391 1.386 0.382 0.384 0.389 0.398 0.406 0.417 0.428 0.440 0.456 0.472 1.492 1.513 1.536 1.568 1.608 1.658 1.715 1.772 1.829 1.881 1.913 1.934 1.948 1.961 1.971 1.981 1.990 1.995 1.998 2.000 2.000 2.000 2.000 2.060 2.307 2.649 3.058 3.516 4.012 4.536 5.083 5.644 6.214
6.045 5.420 4.801 4.194 3.607 3.048 1.526 1.054 0.649 0.342 0.224 0.168 0.118 0.072 0.034 0.007 0.000 0.000 0.000 0.000 0.000 0.000 0.000 0.000 0.001 0.016 0.048 0.090 0.137 0.189 0.244 0.303 0.364 0.426 0.489 1.552 1.614 1.675 1.733 1.789 1.842 1.892 1.937 1.973 1.994 2.000 2.000 2.000 2.000 2.000 2.000 2.000 2.000 2.000 2.000 2.000 2.000 2.000 2.000 2.000 2.000 2.000 2.000 2.000 1.998 1.993 1.982 1.963 1.937 1.904 1.868 1.831 1.790 1.747 1.703 1.659 1.613 1.566 1.518 0.467 0.416 0.363 0.308 0.253 0.202 0.152 0.105 0.066 0.032 0.010 0.002 0.000 0.000 0.000 0.000 0.000 0.000 0.000 0.000 0.000 0.000 0.000 0.000 0.000 0.000 0.000 0.000 0.000 0.000 0.000 0.000 0.000 0.000 0.000 0.000 0.000 0.001 0.013 0.036 0.063 0.093 0.127 0.162 0.198 0.235 0.271 0.306 0.339 1.369 1.395 1.414 1.428 1.440 1.446 1.446 1.441 1.437 1.439 0.444 0.451 0.458 0.466 0.475 0.486 0.501 0.519 1.538 1.560 1.584 1.612 1.648 1.689 1.741 1.800 1.857 1.913 1.948 1.961 1.971 1.979 1.986 1.992 1.995 1.998 2.000 2.000 2.000 2.000 2.000 2.060 2.307 2.649 3.058 3.516 4.012 4.536 5.083 5.644 6.214
6.045 5.420 4.801 4.194 3.607 3.048 1.526 1.054 0.649 0.342 0.224 0.168 0.118 0.072 0.034 0.007 0.000 0.000 0.000 0.000 0.000 0.000 0.000 0.000 0.000 0.012 0.045 0.082 0.127 0.179 0.235 0.293 0.354 0.416 0.478 1.541 1.603 1.664 1.723 1.781 1.836 1.886 1.931 1.967 1.993 2.000 2.000 2.000 2.000 2.000 2.000 2.000 2.000 2.000 2.000 2.000 2.000 2.000 2.000 2.000 2.000 2.000 2.000 1.998 1.991 1.979 1.961 1.937 1.907 1.875 1.845 1.813 1.778 1.738 1.698 1.656 1.612 1.568 0.523 0.474 0.425 0.374 0.320 0.267 0.215 0.168 0.123 0.080 0.046 0.024 0.012 0.004 0.000 0.000 0.000 0.000 0.000 0.000 0.000 0.000 0.000 0.000 0.000 0.000 0.000 0.000 0.000 0.000 0.000 0.000 0.000 0.000 0.000 0.000 0.000 0.000 0.004 0.021 0.047 0.077 0.110 0.147 0.186 0.225 0.264 0.304 0.343 1.379 1.412 1.440 1.462 1.479 1.494 1.502 1.503 1.499 1.494 1.495 1.498 0.503 0.507 0.512 0.522 0.534 0.547 0.562 1.582 1.604 1.628 1.658 1.691 1.727 1.771 1.825 1.883 1.940 1.973 1.982 1.987 1.991 1.994 1.996 1.998 2.000 2.000 2.000 2.000 2.000 2.000 2.060 2.307 2.649 3.058 3.516 4.012 4.536 5.083 5.644 6.214
6.045 5.420 4.801 4.194 3.607 3.048 1.526 1.054 0.649 0.342 0.224 0.168 0.118 0.072 0.034 0.007 0.000 0.000 0.000 0.000 0.000 0.000 0.000 0.000 0.000 0.009 0.039 0.076 0.120 0.171 0.225 0.283 0.343 0.404 0.466 1.528 1.590 1.652 1.713 1.772 1.827 1.879 1.924 1.961 1.991 2.000 2.000 2.000 2.000 2.000 2.000 2.000 2.000 2.000 2.000 2.000 2.000 2.000 2.000 2.000 2.000 2.000 1.998 1.991 1.978 1.961 1.937 1.908 1.880 1.853 1.826 1.799 1.767 1.732 1.696 1.655 1.614 1.572 0.530 0.486 0.436 0.387 0.336 0.285 0.235 0.186 0.141 0.098 0.064 0.043 0.027 0.013 0.004 0.000 0.000 0.000 0.000 0.000 0.000 0.000 0.000 0.000 0.000 0.000 0.000 0.000 0.000 0.000 0.000 0.000 0.000 0.000 0.000 0.000 0.000 0.000 0.008 0.029 0.057 0.091 0.126 0.166 0.208 0.250 0.293 0.336 0.379 1.418 1.455 1.486 1.511 1.531 1.548 1.559 1.562 1.557 1.551 1.551 1.551 0.553 0.553 0.558 0.566 0.577 0.590 0.604 1.622 1.642 1.666 1.695 1.730 1.767 1.806 1.853 1.908 1.958 1.984 1.994 1.996 1.997 1.998 1.999 2.000 2.000 2.000 2.000 2.000 2.000 2.000 2.060 2.307 2.649 3.058 3.516 4.012 4.536 5.083 5.644 6.214
6.045 5.420 4.801 4.194 3.607 3.048 1.526 1.054 0.649 0.342 0.224 0.168 0.118 0.072 0.034 0.007 0.000 0.000 0.000 0.000 0.000 0.000 0.000 0.000 0.000 0.007 0.033 0.069 0.114 0.164 0.217 0.273 0.332 0.393 0.455 1.518 1.580 1.643 1.703 1.762 1.818 1.870 1.916 1.955 1.988 2.000 2.000 2.000 2.000 2.000 2.000 2.000 2.000 2.000 2.000 2.000 2.000 2.000 2.000 2.000 2.000 1.999 1.993 1.979 1.961 1.937 1.908 1.881 1.857 1.834 1.810 1.785 1.757 1.728 1.694 1.657 1.621 0.581 0.539 0.496 0.452 0.405 0.356 0.305 0.255 0.205 0.159 0.118 0.085 0.065 0.045 0.027 0.012 0.002 0.000 0.000 0.000 0.000 0.000 0.000 0.000 0.000 0.000 0.000 0.000 0.000 0.000 0.000 0.000 0.000 0.000 0.000 0.000 0.000 0.000 0.001 0.013 0.036 0.067 0.103 0.142 0.185 0.230 0.276 0.322 0.368 1.414 1.456 1.497 1.532 1.560 1.584 1.603 1.617 1.622 1.617 1.609 1.606 1.602 1.599 0.599 0.602 0.608 0.617 0.627 0.639 1.656 1.674 1.695 1.723 1.756 1.792 1.831 1.873 1.917 1.957 1.982 1.996 1.999 2.000 2.000 2.000 2.000 2.000 2.000 2.000 2.000 2.000 2.000 2.060 2.307 2.649 3.058 3.516 4.012 4.536 5.083 5.644 6.214
6.045 5.420 4.801 4.194 3.607 3.048 1.526 1.054 0.649 0.342 0.224 0.168 0.118 0.072 0.034 0.007 0.000 0.000 0.000 0.000 0.000 0.000 0.000 0.000 0.000 0.006 0.027 0.063 0.108 0.156 0.208 0.263 0.322 0.383 0.445 1.508 1.571 1.633 1.694 1.752 1.808 1.860 1.907 1.950 1.984 1.999 2.000 2.000 2.000 2.000 2.000 2.000 2.000 2.000 2.000 2.000 2.000 2.000 2.000 2.000 2.000 1.996 1.982 1.960 1.935 1.907 1.877 1.855 1.835 1.815 1.794 1.770 1.747 1.721 1.691 1.659 0.625 0.590 0.550 0.509 0.467 0.422 0.374 0.324 0.273 0.225 0.179 0.139 0.110 0.087 0.065 0.043 0.024 0.009 0.001 0.000 0.000 0.000 0.000 0.000 0.000 0.000 0.000 0.000 0.000 0.000 0.000 0.000 0.000 0.000 0.000 0.000 0.001 0.003 0.004 0.008 0.024 0.048 0.080 0.118 0.160 0.204 0.253 0.302 0.351 0.400 1.449 1.496 1.540 1.579 1.609 1.636 1.659 1.675 1.683 1.679 1.669 1.659 1.652 1.644 1.641 1.642 0.647 0.652 0.658 0.670 0.684 1.700 1.719 1.745 1.775 1.807 1.841 1.876 1.911 1.947 1.976 1.993 2.000 2.000 2.000 2.000 2.000 2.000 2.000 2.000 2.000 2.000 2.000 2.060 2.307 2.649 3.058 3.516 4.012 4.536 5.083 5.644 6.214
6.045 5.420 4.801 4.194 3.607 3.048 1.526 1.054 0.649 0.342 0.224 0.168 0.118 0.072 0.034 0.007 0.000 0.000 0.000 0.000 0.000 0.000 0.000 0.000 0.000 0.004 0.022 0.057 0.100 0.146 0.198 0.254 0.313 0.373 0.435 1.497 1.560 1.622 1.683 1.742 1.799 1.851 1.899 1.943 1.980 1.997 2.000 2.000 2.000 2.000 2.000 2.000 2.000 2.000 2.000 2.000 2.000 2.000 2.000 2.000 1.999 1.983 1.959 1.932 1.904 1.873 1.847 1.829 1.811 1.793 1.776 1.756 1.735 1.713 1.688 0.661 0.630 0.596 0.560 0.522 0.482 0.437 0.392 0.342 0.293 0.246 0.200 0.163 0.137 0.110 0.085 0.060 0.037 0.019 0.004 0.000 0.000 0.000 0.000 0.000 0.000 0.000 0.000 0.000 0.000 0.000 0.000 0.000 0.000 0.001 0.004 0.008 0.013 0.018 0.021 0.027 0.044 0.071 0.108 0.146 0.188 0.232 0.277 0.327 0.378 1.431 1.483 1.534 1.582 1.626 1.660 1.689 1.715 1.734 1.744 1.741 1.727 1.709 1.697 1.686 1.680 1.679 1.679 0.681 0.687 0.696 0.705 1.719 1.737 1.760 1.787 1.814 1.843 1.873 1.903 1.935 1.966 1.989 1.999 2.000 2.000 2.000 2.000 2.000 2.000 2.000 2.000 2.000 2.000 2.060 2.307 2.649 3.058 3.516 4.012 4.536 5.083 5.644 6.214
6.045 5.420 4.801 4.194 3.607 3.048 1.526 1.054 0.649 0.342 0.224 0.168 0.118 0.072 0.034 0.007 0.000 0.000 0.000 0.000 0.000 0.000 0.000 0.000 0.000 0.003 0.019 0.051 0.090 0.137 0.189 0.244 0.303 0.362 0.423 0.485 1.547 1.609 1.670 1.729 1.786 1.840 1.892 1.937 1.973 1.995 2.000 2.000 2.000 2.000 2.000 2.000 2.000 2.000 2.000 2.000 2.000 2.000 2.000 1.998 1.984 1.958 1.929 1.899 1.868 1.839 1.818 1.801 1.785 1.771 1.755 1.740 1.724 1.705 0.684 0.661 0.635 0.603 0.571 0.534 0.497 0.454 0.410 0.362 0.314 0.267 0.224 0.192 0.163 0.134 0.105 0.078 0.052 0.030 0.012 0.001 0.000 0.000 0.000 0.000 0.000 0.000 0.000 0.000 0.000 0.000 0.000 0.001 0.004 0.012 0.019 0.027 0.035 0.041 0.044 0.053 0.074 0.105 0.141 0.182 0.225 0.268 0.312 0.359 0.407 1.459 1.513 1.567 1.620 1.670 1.712 1.742 1.770 1.793 1.806 1.804 1.783 1.758 1.739 1.723 1.716 1.711 1.706 1.706 0.708 0.713 0.721 0.733 1.750 1.770 1.793 1.817 1.841 1.867 1.895 1.922 1.954 1.982 1.997 2.000 2.000 2.000 2.000 2.000 2.000 2.000 2.000 2.000 2.000 2.060 2.307 2.649 3.058 3.516 4.012 4.536 5.083 5.644 6.214
6.045 5.420 4.801 4.194 3.607 3.048 1.526 1.054 0.649 0.342 0.224 0.168 0.118 0.072 0.034 0.007 0.000 0.000 0.000 0.000 0.000 0.000 0.000 0.000 0.000 0.001 0.016 0.046 0.082 0.127 0.179 0.233 0.290 0.349 0.410 0.472 1.534 1.596 1.657 1.717 1.775 1.831 1.882 1.929 1.967 1.992 2.000 2.000 2.000 2.000 2.000 2.000 2.000 2.000 2.000 2.000 2.000 1.999 1.993 1.980 1.955 1.924 1.893 1.861 1.829 1.804 1.786 1.771 1.758 1.747 1.735 1.723 0.711 0.696 0.679 0.660 0.638 0.611 1.580 1.547 1.511 1.471 1.428 0.383 0.335 0.291 0.253 0.222 0.190 0.158 0.126 0.095 0.066 0.040 0.019 0.004 0.000 0.000 0.000 0.000 0.000 0.000 0.000 0.000 0.000 0.000 0.002 0.010 0.020 0.031 0.042 0.053 0.061 0.068 0.074 0.085 0.109 0.144 0.180 0.220 0.263 0.307 0.351 0.396 0.442 1.491 1.542 1.598 1.654 1.708 1.759 1.797 1.827 1.851 1.868 1.863 1.834 1.803 1.777 1.757 1.745 1.735 1.729 1.725 1.723 0.725 0.732 0.740 0.755 1.773 1.792 1.812 1.834 1.858 1.883 1.909 1.941 1.972 1.995 2.000 2.000 2.000 2.000 2.000 2.000 2.000 2.000 2.000 2.000 2.060 2.307 2.649 3.058 3.516 4.012 4.536 5.083 5.644 6.214
6.045 5.420 4.801 4.194 3.607 3.048 1.526 1.054 0.649 0.342 0.224 0.168 0.118 0.072 0.034 0.007 0.000 0.000 0.000 0.000 0.000 0.000 0.000 0.000 0.000 0.000 0.012 0.039 0.076 0.120 0.169 0.221 0.277 0.336 0.397 0.459 1.521 1.582 1.644 1.705 1.764 1.821 1.873 1.919 1.959 1.988 2.000 2.000 2.000 2.000 2.000 2.000 2.000 2.000 2.000 1.999 1.996 1.985 1.970 1.949 1.920 1.887 1.853 1.819 1.787 1.767 1.752 1.739 1.729 1.721 0.714 0.704 0.696 0.687 0.675 0.660 1.641 1.618 1.590 1.559 1.525 1.489 1.447 1.405 1.360 0.320 0.286 0.252 0.217 0.181 0.146 0.112 0.080 0.052 0.027 0.008 0.000 0.000 0.000 0.000 0.000 0.000 0.000 0.000 0.000 0.004 0.014 0.027 0.041 0.055 0.069 0.082 0.092 0.102 0.108 0.119 0.150 0.184 0.222 0.261 0.303 0.347 0.391 0.435 0.480 1.525 1.574 1.626 1.682 1.740 1.795 1.846 1.883 1.910 1.926 1.911 1.879 1.844 1.810 1.785 1.768 1.754 1.744 1.736 1.734 1.734 0.736 0.744 0.755 1.769 1.785 1.802 1.822 1.844 1.867 1.891 1.924 1.960 1.990 2.000 2.000 2.000 2.000 2.000 2.000 2.000 2.000 2.000 2.000 2.060 2.307 2.649 3.058 3.516 4.012 4.536 5.083 5.644 6.214
6.045 5.420 4.801 4.194 3.607 3.048 1.526 1.054 0.649 0.342 0.224 0.168 0.118 0.072 0.034 0.007 0.000 0.000 0.000 0.000 0.000 0.000 0.000 0.000 0.000 0.000 0.008 0.033 0.069 0.112 0.159 0.211 0.267 0.325 0.384 0.445 1.507 1.569 1.631 1.692 1.752 1.808 1.861 1.909 1.949 1.983 1.999 2.000 2.000 2.000 2.000 2.000 2.000 2.000 1.998 1.990 1.978 1.961 1.941 1.915 1.882 1.847 1.811 1.774 1.747 1.728 1.715 1.706 1.698 1.693 0.690 0.685 0.680 0.674 0.668 1.660 1.646 1.627 1.601 1.572 1.542 1.509 1.472 1.429 1.388 1.353 0.317 0.281 0.243 0.204 0.166 0.129 0.094 0.063 0.035 0.013 0.001 0.000 0.000 0.000 0.000 0.000 0.000 0.000 0.005 0.016 0.031 0.047 0.065 0.082 0.099 0.113 0.126 0.137 0.145 0.159 0.192 0.226 0.266 0.305 0.346 0.388 0.432 0.474 0.518 1.563 1.608 1.654 1.706 1.761 1.819 1.873 1.918 1.949 1.962 1.945 1.915 1.879 1.838 1.808 1.786 1.769 1.755 1.746 1.741 1.738 0.740 0.744 0.752 1.761 1.773 1.788 1.805 1.825 1.847 1.872 1.902 1.942 1.979 1.999 2.000 2.000 2.000 2.000 2.000 2.000 2.000 2.000 2.000 2.060 2.307 2.649 3.058 3.516 4.012 4.536 5.083 5.644 6.214
6.045 5.420 4.801 4.194 3.607 3.048 1.526 1.054 0.649 0.342 0.224 0.168 0.118 0.072 0.034 0.007 0.000 0.000 0.000 0.000 0.000 0.000 0.000 0.000 0.000 0.000 0.005 0.027 0.063 0.103 0.149 0.201 0.255 0.312 0.371 0.432 1.494 1.556 1.617 1.678 1.737 1.795 1.848 1.897 1.939 1.976 1.997 2.000 2.000 2.000 2.000 2.000 2.000 1.996 1.985 1.970 1.951 1.930 1.906 1.877 1.843 1.805 1.768 1.730 1.704 1.687 1.677 1.670 1.665 0.663 0.661 0.661 0.661 0.661 1.658 1.656 1.647 1.634 1.612 1.586 1.560 1.530 1.496 1.456 1.421 1.386 0.347 0.307 0.265 0.224 0.183 0.145 0.107 0.073 0.042 0.018 0.003 0.000 0.000 0.000 0.000 0.000 0.000 0.004 0.016 0.033 0.052 0.072 0.092 0.113 0.131 0.148 0.164 0.176 0.184 0.201 0.235 0.272 0.310 0.350 0.390 0.430 0.471 0.514 0.555 1.597 1.640 1.684 1.730 1.779 1.834 1.886 1.932 1.966 1.981 1.970 1.945 1.911 1.864 1.824 1.799 1.780 1.765 1.755 1.747 1.743 1.742 0.743 0.747 1.752 1.760 1.770 1.785 1.802 1.824 1.849 1.878 1.918 1.961 1.991 2.000 2.000 2.000 2.000 2.000 2.000 2.000 2.000 2.000 2.060 2.307 2.649 3.058 3.516 4.012 4.536 5.083 5.644 6.214
6.045 5.420 4.801 4.194 3.607 3.048 1.526 1.054 0.649 0.342 0.224 0.168 0.118 0.072 0.034 0.007 0.000 0.000 0.000 0.000 0.000 0.000 0.000 0.000 0.000 0.000 0.003 0.020 0.054 0.093 0.140 0.190 0.243 0.299 0.358 0.417 0.478 1.540 1.600 1.661 1.720 1.777 1.832 1.882 1.928 1.968 1.993 2.000 2.000 2.000 2.000 1.999 1.991 1.977 1.959 1.939 1.916 1.893 1.866 1.834 1.799 1.761 1.723 1.685 1.660 1.646 1.637 1.632 1.629 0.629 0.632 0.636 0.639 0.644 1.648 1.652 1.650 1.641 1.622 1.601 1.580 1.553 1.523 1.489 1.456 1.417 1.374 0.331 0.286 0.242 0.198 0.156 0.118 0.083 0.049 0.022 0.004 0.000 0.000 0.000 0.000 0.000 0.002 0.014 0.031 0.052 0.074 0.097 0.121 0.145 0.165 0.185 0.203 0.217 0.226 0.246 0.280 0.319 0.356 0.395 0.434 0.473 0.512 0.552 0.590 1.630 1.670 1.711 1.753 1.797 1.844 1.895 1.940 1.975 1.992 1.989 1.969 1.937 1.887 1.839 1.811 1.790 1.774 1.761 1.752 1.744 1.740 0.738 0.738 1.740 1.745 1.752 1.761 1.776 1.797 1.821 1.850 1.891 1.936 1.970 1.993 2.000 2.000 2.000 2.000 2.000 2.000 2.000 2.000 2.060 2.307 2.649 3.058 3.516 4.012 4.536 5.083 5.644 6.214
6.045 5.420 4.801 4.194 3.607 3.048 1.526 1.054 0.649 0.342 0.224 0.168 0.118 0.072 0.034 0.007 0.000 0.000 0.000 0.000 0.000 0.000 0.000 0.000 0.000 0.000 0.001 0.015 0.045 0.084 0.129 0.177 0.230 0.285 0.342 0.401 0.460 1.521 1.581 1.640 1.698 1.755 1.809 1.862 1.913 1.956 1.987 2.000 1.999 1.997 1.992 1.980 1.963 1.945 1.926 1.902 1.877 1.850 1.821 1.790 1.754 1.714 1.674 1.640 1.616 1.603 1.595 1.591 0.591 0.594 0.599 0.606 0.615 1.622 1.631 1.641 1.647 1.644 1.630 1.614 1.597 1.576 1.552 1.523 1.486 1.442 1.398 0.350 0.303 0.256 0.211 0.166 0.126 0.089 0.055 0.025 0.006 0.000 0.000 0.000 0.000 0.001 0.010 0.027 0.047 0.072 0.097 0.124 0.151 0.177 0.201 0.224 0.243 0.258 0.271 0.293 0.326 0.363 0.403 0.440 0.477 0.515 0.552 0.590 0.626 1.663 1.700 1.738 1.776 1.816 1.856 1.902 1.945 1.978 1.996 1.999 1.991 1.960 1.910 1.860 1.824 1.799 1.781 1.766 1.752 1.743 1.735 0.728 0.725 0.724 1.726 1.731 1.738 1.748 1.764 1.788 1.818 1.859 1.903 1.938 1.966 1.985 1.994 1.996 1.997 1.999 2.000 2.000 2.000 2.060 2.307 2.649 3.058 3.516 4.012 4.536 5.083 5.644 6.214
6.045 5.420 4.801 4.194 3.607 3.048 1.526 1.054 0.649 0.342 0.224 0.168 0.118 0.072 0.034 0.007 0.000 0.000 0.000 0.000 0.000 0.000 0.000 0.000 0.000 0.000 0.000 0.011 0.036 0.074 0.116 0.164 0.215 0.269 0.325 0.382 0.441 1.499 1.557 1.615 1.673 1.728 1.783 1.836 1.885 1.928 1.964 1.985 1.983 1.975 1.963 1.945 1.926 1.903 1.881 1.857 1.832 1.805 1.775 1.742 1.705 1.667 1.626 1.591 1.571 1.558 1.551 0.548 0.551 0.555 0.563 0.572 0.583 1.595 1.610 1.625 1.639 1.640 1.626 1.613 1.602 1.594 1.580 1.550 1.509 1.462 1.413 0.363 0.314 0.267 0.219 0.174 0.133 0.093 0.059 0.028 0.006 0.000 0.000 0.000 0.000 0.004 0.020 0.041 0.065 0.092 0.121 0.151 0.181 0.210 0.236 0.262 0.284 0.300 0.317 0.341 0.374 0.409 0.447 0.485 0.521 0.555 0.590 0.625 1.660 1.694 1.728 1.763 1.797 1.833 1.870 1.907 1.948 1.981 1.997 2.000 2.000 1.979 1.932 1.882 1.840 1.809 1.786 1.767 1.751 1.736 1.724 0.716 0.709 0.705 1.705 1.706 1.711 1.719 1.730 1.750 1.779 1.819 1.859 1.893 1.923 1.948 1.966 1.978 1.984 1.989 1.993 1.997 1.999 2.060 2.307 2.649 3.058 3.516 4.012 4.536 5.083 5.644 6.214
6.045 5.420 4.801 4.194 3.607 3.048 1.526 1.054 0.649 0.342 0.224 0.168 0.118 0.072 0.034 0.007 0.000 0.000 0.000 0.000 0.000 0.000 0.000 0.000 0.000 0.000 0.000 0.007 0.030 0.064 0.103 0.150 0.199 0.251 0.306 0.361 0.417 1.473 1.531 1.587 1.642 1.696 1.748 1.798 1.842 1.880 1.915 1.939 1.943 1.935 1.920 1.901 1.881 1.859 1.835 1.808 1.781 1.754 1.724 1.692 1.655 1.618 1.578 1.543 1.525 0.512 0.505 0.504 0.507 0.514 0.523 0.534 0.549 1.565 1.581 1.601 1.619 1.626 1.609 1.601 1.598 1.598 1.594 1.567 1.521 1.472 1.421 0.370 0.320 0.270 0.224 0.179 0.136 0.096 0.060 0.031 0.007 0.000 0.000 0.000 0.001 0.012 0.031 0.055 0.082 0.113 0.145 0.177 0.210 0.241 0.271 0.300 0.325 0.344 1.363 1.389 1.422 1.456 1.490 0.526 0.560 0.593 0.626 0.658 1.690 1.721 1.753 1.786 1.818 1.849 1.881 1.914 1.952 1.984 1.999 2.000 1.999 1.984 1.948 1.899 1.854 1.817 1.788 1.765 1.745 1.727 1.712 0.700 0.692 0.686 0.681 1.680 1.681 1.686 1.693 1.708 1.735 1.773 1.812 1.847 1.878 1.906 1.929 1.948 1.961 1.971 1.979 1.986 1.993 2.058 2.307 2.649 3.058 3.516 4.012 4.536 5.083 5.644 6.214
6.045 5.420 4.801 4.194 3.607 3.048 1.526 1.054 0.649 0.342 0.224 0.168 0.118 0.072 0.034 0.007 0.000 0.000 0.000 0.000 0.000 0.000 0.000 0.000 0.000 0.000 0.000 0.003 0.023 0.054 0.093 0.135 0.182 0.232 0.284 0.337 0.391 0.446 1.501 1.555 1.608 1.659 1.708 1.753 1.793 1.828 1.861 1.882 1.891 1.884 1.870 1.851 1.830 1.808 1.784 1.757 1.728 1.700 1.671 1.639 1.605 1.567 1.529 1.495 0.476 0.465 0.460 0.458 0.461 0.469 0.480 0.493 0.509 1.527 1.546 1.569 1.591 1.603 1.599 1.598 1.598 1.598 1.598 1.571 1.523 1.472 1.421 0.370 0.320 0.270 0.224 0.179 0.136 0.096 0.060 0.031 0.007 0.000 0.000 0.000 0.004 0.019 0.042 0.069 0.099 0.131 0.165 0.201 0.236 0.271 0.305 0.337 1.364 1.386 1.408 1.437 1.468 1.501 1.534 1.567 1.598 0.628 0.658 0.688 1.718 1.746 1.775 1.804 1.834 1.864 1.892 1.921 1.955 1.988 2.000 2.000 1.997 1.984 1.955 1.911 1.863 1.823 1.790 1.761 1.736 1.716 1.699 0.683 0.672 0.662 0.654 1.650 1.648 1.649 1.655 1.664 1.687 1.725 1.762 1.799 1.832 1.863 1.890 1.913 1.932 1.947 1.960 1.970 1.981 2.049 2.303 2.649 3.058 3.516 4.012 4.536 5.083 5.644 6.214
6.045 5.420 4.801 4.194 3.607 3.048 1.526 1.054 0.649 0.342 0.224 0.168 0.118 0.072 0.034 0.007 0.000 0.000 0.000 0.000 0.000 0.000 0.000 0.000 0.000 0.000 0.000 0.001 0.016 0.045 0.081 0.122 0.166 0.214 0.262 0.313 0.366 0.418 1.470 1.521 1.571 1.619 1.664 1.704 1.740 1.775 1.803 1.821 1.831 1.827 1.814 1.796 1.776 1.753 1.730 1.703 1.675 1.646 1.616 1.585 1.552 1.516 0.478 0.447 0.428 0.416 0.412 0.411 0.414 0.421 0.434 0.450 0.466 1.485 1.506 1.531 1.557 1.581 1.594 1.598 1.598 1.598 1.592 1.560 1.513 1.463 1.413 0.363 0.314 0.267 0.219 0.174 0.133 0.093 0.059 0.028 0.006 0.000 0.000 0.000 0.008 0.027 0.053 0.082 0.113 0.148 0.185 0.224 0.262 0.300 0.337 1.372 1.402 1.427 1.449 1.481 1.512 1.543 1.574 1.604 1.632 1.660 0.686 0.713 1.740 1.766 1.794 1.821 1.847 1.876 1.903 1.929 1.959 1.991 2.000 2.000 1.996 1.984 1.956 1.916 1.868 1.826 1.790 1.757 1.728 1.702 0.681 0.664 0.649 0.636 0.626 0.618 1.613 1.611 1.613 1.618 1.638 1.675 1.713 1.751 1.786 1.818 1.847 1.874 1.897 1.915 1.932 1.947 1.961 2.035 2.294 2.646 3.058 3.516 4.012 4.536 5.083 5.644 6.214
6.045 5.420 4.801 4.194 3.607 3.048 1.526 1.054 0.649 0.342 0.224 0.168 0.118 0.072 0.034 0.007 0.000 0.000 0.000 0.000 0.000 0.000 0.000 0.000 0.000 0.000 0.000 0.000 0.010 0.035 0.068 0.107 0.149 0.194 0.240 0.289 0.339 0.388 1.436 1.484 1.531 1.575 1.615 1.652 1.687 1.719 1.743 1.759 1.769 1.766 1.754 1.738 1.718 1.696 1.673 1.647 1.619 1.590 1.559 1.530 0.498 0.465 0.428 0.396 0.379 0.369 0.364 0.363 0.366 0.375 0.388 0.403 0.422 1.442 1.467 1.495 1.525 1.554 1.572 1.582 1.586 1.581 1.565 1.534 1.491 1.446 1.398 0.350 0.303 0.256 0.211 0.166 0.126 0.089 0.055 0.025 0.006 0.000 0.000 0.001 0.013 0.035 0.061 0.092 0.126 0.164 0.203 0.243 0.284 0.325 1.364 1.402 1.435 1.463 1.486 1.518 1.548 1.579 1.609 1.636 1.661 1.686 0.709 0.733 1.757 1.782 1.807 1.833 1.858 1.886 1.912 1.937 1.964 1.993 2.000 2.000 1.996 1.984 1.956 1.918 1.871 1.823 1.784 1.748 1.716 1.687 0.662 0.641 0.623 0.607 0.595 0.585 0.577 1.572 1.568 1.570 1.588 1.624 1.664 1.702 1.738 1.771 1.801 1.829 1.855 1.878 1.897 1.915 1.931 2.007 2.271 2.631 3.053 3.515 4.011 4.536 5.083 5.644 6.214
6.045 5.420 4.801 4.194 3.607 3.048 1.526 1.054 0.649 0.342 0.224 0.168 0.118 0.072 0.034 0.007 0.000 0.000 0.000 0.000 0.000 0.000 0.000 0.000 0.000 0.000 0.000 0.000 0.005 0.026 0.056 0.091 0.131 0.173 0.217 0.263 0.309 0.355 0.401 1.446 1.489 1.529 1.565 1.600 1.634 1.661 1.682 1.698 1.705 1.704 1.693 1.678 1.660 1.637 1.615 1.590 1.562 1.533 1.504 0.474 0.443 0.411 0.378 0.345 0.328 0.319 0.316 0.315 0.319 0.329 0.343 0.359 0.380 1.402 1.428 1.459 1.493 1.522 1.539 1.549 1.551 1.545 1.529 1.500 1.463 1.420 1.376 0.331 0.286 0.242 0.198 0.156 0.118 0.083 0.049 0.022 0.004 0.000 0.000 0.003 0.018 0.041 0.068 0.102 0.137 0.176 0.217 0.258 0.300 0.344 1.386 1.427 1.463 1.490 1.503 1.531 1.567 1.605 1.637 1.662 1.685 1.706 1.727 0.750 1.773 1.795 1.818 1.841 1.866 1.892 1.917 1.944 1.968 1.993 2.000 2.000 1.996 1.984 1.956 1.918 1.871 1.819 1.773 1.734 1.698 1.667 0.640 0.616 0.594 0.576 0.561 0.548 0.537 0.528 1.521 1.522 1.538 1.575 1.615 1.652 1.689 1.721 1.752 1.782 1.809 1.833 1.853 1.873 1.891 1.970 2.237 2.600 3.029 3.504 4.006 4.534 5.082 5.644 6.214
